4.055000000000000000e+03 4.055000000000000000e+03 4.055000000000000000e+03 4.055000000000000000e+03 4.082000000000000000e+03 4.082000000000000000e+03 4.082000000000000000e+03 4.082000000000000000e+03 4.109000000000000000e+03 4.109000000000000000e+03 4.109000000000000000e+03 4.137000000000000000e+03 4.137000000000000000e+03 4.165000000000000000e+03 4.165000000000000000e+03 4.165000000000000000e+03 4.165000000000000000e+03 4.165000000000000000e+03 4.193000000000000000e+03 4.193000000000000000e+03 4.222000000000000000e+03 4.222000000000000000e+03 4.251000000000000000e+03 4.251000000000000000e+03 4.281000000000000000e+03 4.281000000000000000e+03 4.311000000000000000e+03 4.311000000000000000e+03 4.311000000000000000e+03 4.311000000000000000e+03 4.311000000000000000e+03 4.311000000000000000e+03 4.311000000000000000e+03 4.311000000000000000e+03 4.281000000000000000e+03 4.281000000000000000e+03 4.251000000000000000e+03 4.251000000000000000e+03 4.222000000000000000e+03 4.222000000000000000e+03 4.222000000000000000e+03 4.193000000000000000e+03 4.193000000000000000e+03 4.193000000000000000e+03 4.222000000000000000e+03 4.251000000000000000e+03 4.251000000000000000e+03 4.311000000000000000e+03 4.341000000000000000e+03 4.372000000000000000e+03 4.403000000000000000e+03 4.467000000000000000e+03 4.467000000000000000e+03 4.499000000000000000e+03 4.499000000000000000e+03 4.467000000000000000e+03 4.467000000000000000e+03 4.403000000000000000e+03 4.372000000000000000e+03 4.311000000000000000e+03 4.251000000000000000e+03 4.222000000000000000e+03 4.165000000000000000e+03 4.137000000000000000e+03 4.109000000000000000e+03 4.109000000000000000e+03 4.109000000000000000e+03 4.109000000000000000e+03 4.109000000000000000e+03 4.109000000000000000e+03 4.109000000000000000e+03 4.109000000000000000e+03 4.109000000000000000e+03 4.109000000000000000e+03 4.109000000000000000e+03 4.109000000000000000e+03 4.082000000000000000e+03 4.055000000000000000e+03 4.029000000000000000e+03 3.977000000000000000e+03 3.926000000000000000e+03 3.877000000000000000e+03 3.853000000000000000e+03 3.805000000000000000e+03 3.759000000000000000e+03 3.736000000000000000e+03 3.713000000000000000e+03 3.691000000000000000e+03 3.691000000000000000e+03 3.691000000000000000e+03 3.691000000000000000e+03 3.713000000000000000e+03 3.736000000000000000e+03 3.736000000000000000e+03 3.782000000000000000e+03 3.782000000000000000e+03 3.829000000000000000e+03 3.829000000000000000e+03 3.829000000000000000e+03 3.853000000000000000e+03 3.853000000000000000e+03 3.853000000000000000e+03 3.829000000000000000e+03 3.829000000000000000e+03 3.805000000000000000e+03 3.782000000000000000e+03 3.759000000000000000e+03 3.759000000000000000e+03 3.713000000000000000e+03 3.691000000000000000e+03 3.669000000000000000e+03 3.669000000000000000e+03 3.647000000000000000e+03 3.669000000000000000e+03 3.691000000000000000e+03 3.736000000000000000e+03 3.782000000000000000e+03 3.853000000000000000e+03 3.901000000000000000e+03
4.082000000000000000e+03 4.082000000000000000e+03 4.082000000000000000e+03 4.109000000000000000e+03 4.109000000000000000e+03 4.109000000000000000e+03 4.109000000000000000e+03 4.137000000000000000e+03 4.137000000000000000e+03 4.137000000000000000e+03 4.137000000000000000e+03 4.165000000000000000e+03 4.165000000000000000e+03 4.165000000000000000e+03 4.165000000000000000e+03 4.165000000000000000e+03 4.165000000000000000e+03 4.165000000000000000e+03 4.165000000000000000e+03 4.193000000000000000e+03 4.193000000000000000e+03 4.193000000000000000e+03 4.222000000000000000e+03 4.222000000000000000e+03 4.251000000000000000e+03 4.251000000000000000e+03 4.281000000000000000e+03 4.281000000000000000e+03 4.281000000000000000e+03 4.281000000000000000e+03 4.281000000000000000e+03 4.281000000000000000e+03 4.281000000000000000e+03 4.251000000000000000e+03 4.251000000000000000e+03 4.251000000000000000e+03 4.222000000000000000e+03 4.222000000000000000e+03 4.222000000000000000e+03 4.222000000000000000e+03 4.193000000000000000e+03 4.193000000000000000e+03 4.193000000000000000e+03 4.193000000000000000e+03 4.222000000000000000e+03 4.251000000000000000e+03 4.281000000000000000e+03 4.311000000000000000e+03 4.341000000000000000e+03 4.372000000000000000e+03 4.435000000000000000e+03 4.467000000000000000e+03 4.499000000000000000e+03 4.532000000000000000e+03 4.532000000000000000e+03 4.499000000000000000e+03 4.467000000000000000e+03 4.435000000000000000e+03 4.403000000000000000e+03 4.341000000000000000e+03 4.281000000000000000e+03 4.222000000000000000e+03 4.193000000000000000e+03 4.137000000000000000e+03 4.137000000000000000e+03 4.109000000000000000e+03 4.109000000000000000e+03 4.109000000000000000e+03 4.109000000000000000e+03 4.109000000000000000e+03 4.109000000000000000e+03 4.109000000000000000e+03 4.109000000000000000e+03 4.137000000000000000e+03 4.109000000000000000e+03 4.109000000000000000e+03 4.082000000000000000e+03 4.055000000000000000e+03 4.003000000000000000e+03 3.951000000000000000e+03 3.926000000000000000e+03 3.877000000000000000e+03 3.829000000000000000e+03 3.805000000000000000e+03 3.759000000000000000e+03 3.759000000000000000e+03 3.736000000000000000e+03 3.736000000000000000e+03 3.736000000000000000e+03 3.736000000000000000e+03 3.736000000000000000e+03 3.759000000000000000e+03 3.782000000000000000e+03 3.782000000000000000e+03 3.805000000000000000e+03 3.829000000000000000e+03 3.853000000000000000e+03 3.877000000000000000e+03 3.877000000000000000e+03 3.877000000000000000e+03 3.877000000000000000e+03 3.877000000000000000e+03 3.853000000000000000e+03 3.853000000000000000e+03 3.829000000000000000e+03 3.805000000000000000e+03 3.782000000000000000e+03 3.782000000000000000e+03 3.736000000000000000e+03 3.713000000000000000e+03 3.691000000000000000e+03 3.691000000000000000e+03 3.669000000000000000e+03 3.669000000000000000e+03 3.713000000000000000e+03 3.736000000000000000e+03 3.782000000000000000e+03 3.853000000000000000e+03 3.901000000000000000e+03
4.109000000000000000e+03 4.109000000000000000e+03 4.109000000000000000e+03 4.137000000000000000e+03 4.137000000000000000e+03 4.137000000000000000e+03 4.137000000000000000e+03 4.137000000000000000e+03 4.165000000000000000e+03 4.165000000000000000e+03 4.165000000000000000e+03 4.165000000000000000e+03 4.165000000000000000e+03 4.165000000000000000e+03 4.165000000000000000e+03 4.165000000000000000e+03 4.165000000000000000e+03 4.165000000000000000e+03 4.165000000000000000e+03 4.165000000000000000e+03 4.165000000000000000e+03 4.165000000000000000e+03 4.193000000000000000e+03 4.193000000000000000e+03 4.193000000000000000e+03 4.222000000000000000e+03 4.222000000000000000e+03 4.222000000000000000e+03 4.222000000000000000e+03 4.222000000000000000e+03 4.222000000000000000e+03 4.222000000000000000e+03 4.222000000000000000e+03 4.222000000000000000e+03 4.222000000000000000e+03 4.222000000000000000e+03 4.222000000000000000e+03 4.193000000000000000e+03 4.193000000000000000e+03 4.193000000000000000e+03 4.193000000000000000e+03 4.193000000000000000e+03 4.193000000000000000e+03 4.193000000000000000e+03 4.222000000000000000e+03 4.251000000000000000e+03 4.281000000000000000e+03 4.341000000000000000e+03 4.341000000000000000e+03 4.403000000000000000e+03 4.435000000000000000e+03 4.499000000000000000e+03 4.532000000000000000e+03 4.532000000000000000e+03 4.532000000000000000e+03 4.499000000000000000e+03 4.499000000000000000e+03 4.435000000000000000e+03 4.403000000000000000e+03 4.341000000000000000e+03 4.281000000000000000e+03 4.251000000000000000e+03 4.193000000000000000e+03 4.165000000000000000e+03 4.137000000000000000e+03 4.137000000000000000e+03 4.109000000000000000e+03 4.109000000000000000e+03 4.109000000000000000e+03 4.109000000000000000e+03 4.109000000000000000e+03 4.137000000000000000e+03 4.109000000000000000e+03 4.109000000000000000e+03 4.109000000000000000e+03 4.082000000000000000e+03 4.055000000000000000e+03 4.029000000000000000e+03 3.977000000000000000e+03 3.926000000000000000e+03 3.877000000000000000e+03 3.853000000000000000e+03 3.829000000000000000e+03 3.805000000000000000e+03 3.782000000000000000e+03 3.759000000000000000e+03 3.759000000000000000e+03 3.759000000000000000e+03 3.759000000000000000e+03 3.759000000000000000e+03 3.759000000000000000e+03 3.782000000000000000e+03 3.805000000000000000e+03 3.829000000000000000e+03 3.829000000000000000e+03 3.853000000000000000e+03 3.877000000000000000e+03 3.877000000000000000e+03 3.901000000000000000e+03 3.901000000000000000e+03 3.901000000000000000e+03 3.877000000000000000e+03 3.877000000000000000e+03 3.853000000000000000e+03 3.853000000000000000e+03 3.829000000000000000e+03 3.805000000000000000e+03 3.782000000000000000e+03 3.759000000000000000e+03 3.736000000000000000e+03 3.713000000000000000e+03 3.691000000000000000e+03 3.691000000000000000e+03 3.691000000000000000e+03 3.713000000000000000e+03 3.736000000000000000e+03 3.805000000000000000e+03 3.829000000000000000e+03 3.901000000000000000e+03
4.109000000000000000e+03 4.137000000000000000e+03 4.137000000000000000e+03 4.137000000000000000e+03 4.165000000000000000e+03 4.165000000000000000e+03 4.165000000000000000e+03 4.165000000000000000e+03 4.165000000000000000e+03 4.165000000000000000e+03 4.193000000000000000e+03 4.165000000000000000e+03 4.193000000000000000e+03 4.165000000000000000e+03 4.165000000000000000e+03 4.165000000000000000e+03 4.165000000000000000e+03 4.165000000000000000e+03 4.137000000000000000e+03 4.165000000000000000e+03 4.137000000000000000e+03 4.165000000000000000e+03 4.165000000000000000e+03 4.165000000000000000e+03 4.165000000000000000e+03 4.165000000000000000e+03 4.193000000000000000e+03 4.193000000000000000e+03 4.193000000000000000e+03 4.193000000000000000e+03 4.193000000000000000e+03 4.193000000000000000e+03 4.193000000000000000e+03 4.193000000000000000e+03 4.193000000000000000e+03 4.193000000000000000e+03 4.193000000000000000e+03 4.193000000000000000e+03 4.193000000000000000e+03 4.165000000000000000e+03 4.165000000000000000e+03 4.193000000000000000e+03 4.193000000000000000e+03 4.193000000000000000e+03 4.222000000000000000e+03 4.251000000000000000e+03 4.281000000000000000e+03 4.341000000000000000e+03 4.341000000000000000e+03 4.403000000000000000e+03 4.435000000000000000e+03 4.467000000000000000e+03 4.499000000000000000e+03 4.499000000000000000e+03 4.532000000000000000e+03 4.499000000000000000e+03 4.499000000000000000e+03 4.435000000000000000e+03 4.403000000000000000e+03 4.341000000000000000e+03 4.281000000000000000e+03 4.251000000000000000e+03 4.193000000000000000e+03 4.165000000000000000e+03 4.137000000000000000e+03 4.137000000000000000e+03 4.137000000000000000e+03 4.137000000000000000e+03 4.137000000000000000e+03 4.137000000000000000e+03 4.109000000000000000e+03 4.109000000000000000e+03 4.109000000000000000e+03 4.109000000000000000e+03 4.082000000000000000e+03 4.055000000000000000e+03 4.029000000000000000e+03 3.977000000000000000e+03 3.926000000000000000e+03 3.901000000000000000e+03 3.853000000000000000e+03 3.829000000000000000e+03 3.805000000000000000e+03 3.782000000000000000e+03 3.782000000000000000e+03 3.759000000000000000e+03 3.759000000000000000e+03 3.782000000000000000e+03 3.782000000000000000e+03 3.782000000000000000e+03 3.782000000000000000e+03 3.805000000000000000e+03 3.805000000000000000e+03 3.829000000000000000e+03 3.853000000000000000e+03 3.853000000000000000e+03 3.877000000000000000e+03 3.901000000000000000e+03 3.901000000000000000e+03 3.901000000000000000e+03 3.901000000000000000e+03 3.877000000000000000e+03 3.877000000000000000e+03 3.853000000000000000e+03 3.853000000000000000e+03 3.829000000000000000e+03 3.805000000000000000e+03 3.782000000000000000e+03 3.759000000000000000e+03 3.736000000000000000e+03 3.713000000000000000e+03 3.713000000000000000e+03 3.691000000000000000e+03 3.691000000000000000e+03 3.736000000000000000e+03 3.759000000000000000e+03 3.782000000000000000e+03 3.829000000000000000e+03 3.901000000000000000e+03
4.137000000000000000e+03 4.137000000000000000e+03 4.165000000000000000e+03 4.165000000000000000e+03 4.165000000000000000e+03 4.165000000000000000e+03 4.193000000000000000e+03 4.193000000000000000e+03 4.193000000000000000e+03 4.193000000000000000e+03 4.193000000000000000e+03 4.193000000000000000e+03 4.193000000000000000e+03 4.165000000000000000e+03 4.165000000000000000e+03 4.165000000000000000e+03 4.165000000000000000e+03 4.137000000000000000e+03 4.137000000000000000e+03 4.137000000000000000e+03 4.109000000000000000e+03 4.137000000000000000e+03 4.137000000000000000e+03 4.137000000000000000e+03 4.137000000000000000e+03 4.137000000000000000e+03 4.137000000000000000e+03 4.137000000000000000e+03 4.137000000000000000e+03 4.165000000000000000e+03 4.165000000000000000e+03 4.165000000000000000e+03 4.165000000000000000e+03 4.165000000000000000e+03 4.165000000000000000e+03 4.165000000000000000e+03 4.165000000000000000e+03 4.165000000000000000e+03 4.165000000000000000e+03 4.165000000000000000e+03 4.165000000000000000e+03 4.193000000000000000e+03 4.193000000000000000e+03 4.193000000000000000e+03 4.222000000000000000e+03 4.251000000000000000e+03 4.281000000000000000e+03 4.311000000000000000e+03 4.341000000000000000e+03 4.372000000000000000e+03 4.403000000000000000e+03 4.435000000000000000e+03 4.467000000000000000e+03 4.467000000000000000e+03 4.499000000000000000e+03 4.467000000000000000e+03 4.435000000000000000e+03 4.403000000000000000e+03 4.372000000000000000e+03 4.341000000000000000e+03 4.281000000000000000e+03 4.251000000000000000e+03 4.193000000000000000e+03 4.165000000000000000e+03 4.137000000000000000e+03 4.137000000000000000e+03 4.137000000000000000e+03 4.109000000000000000e+03 4.109000000000000000e+03 4.109000000000000000e+03 4.109000000000000000e+03 4.109000000000000000e+03 4.082000000000000000e+03 4.055000000000000000e+03 4.055000000000000000e+03 4.003000000000000000e+03 3.977000000000000000e+03 3.951000000000000000e+03 3.901000000000000000e+03 3.853000000000000000e+03 3.829000000000000000e+03 3.805000000000000000e+03 3.805000000000000000e+03 3.782000000000000000e+03 3.782000000000000000e+03 3.782000000000000000e+03 3.759000000000000000e+03 3.782000000000000000e+03 3.782000000000000000e+03 3.805000000000000000e+03 3.805000000000000000e+03 3.805000000000000000e+03 3.829000000000000000e+03 3.829000000000000000e+03 3.853000000000000000e+03 3.853000000000000000e+03 3.877000000000000000e+03 3.877000000000000000e+03 3.901000000000000000e+03 3.877000000000000000e+03 3.877000000000000000e+03 3.877000000000000000e+03 3.853000000000000000e+03 3.853000000000000000e+03 3.829000000000000000e+03 3.829000000000000000e+03 3.782000000000000000e+03 3.782000000000000000e+03 3.759000000000000000e+03 3.736000000000000000e+03 3.713000000000000000e+03 3.691000000000000000e+03 3.713000000000000000e+03 3.713000000000000000e+03 3.736000000000000000e+03 3.759000000000000000e+03 3.805000000000000000e+03 3.829000000000000000e+03 3.901000000000000000e+03
4.165000000000000000e+03 4.165000000000000000e+03 4.165000000000000000e+03 4.165000000000000000e+03 4.193000000000000000e+03 4.193000000000000000e+03 4.222000000000000000e+03 4.222000000000000000e+03 4.222000000000000000e+03 4.222000000000000000e+03 4.222000000000000000e+03 4.193000000000000000e+03 4.193000000000000000e+03 4.193000000000000000e+03 4.193000000000000000e+03 4.165000000000000000e+03 4.165000000000000000e+03 4.137000000000000000e+03 4.109000000000000000e+03 4.109000000000000000e+03 4.109000000000000000e+03 4.109000000000000000e+03 4.109000000000000000e+03 4.109000000000000000e+03 4.109000000000000000e+03 4.109000000000000000e+03 4.109000000000000000e+03 4.109000000000000000e+03 4.109000000000000000e+03 4.137000000000000000e+03 4.137000000000000000e+03 4.137000000000000000e+03 4.137000000000000000e+03 4.137000000000000000e+03 4.137000000000000000e+03 4.137000000000000000e+03 4.137000000000000000e+03 4.137000000000000000e+03 4.165000000000000000e+03 4.165000000000000000e+03 4.165000000000000000e+03 4.165000000000000000e+03 4.193000000000000000e+03 4.193000000000000000e+03 4.222000000000000000e+03 4.251000000000000000e+03 4.281000000000000000e+03 4.311000000000000000e+03 4.311000000000000000e+03 4.341000000000000000e+03 4.372000000000000000e+03 4.403000000000000000e+03 4.435000000000000000e+03 4.435000000000000000e+03 4.435000000000000000e+03 4.435000000000000000e+03 4.403000000000000000e+03 4.372000000000000000e+03 4.372000000000000000e+03 4.311000000000000000e+03 4.281000000000000000e+03 4.222000000000000000e+03 4.193000000000000000e+03 4.165000000000000000e+03 4.137000000000000000e+03 4.137000000000000000e+03 4.137000000000000000e+03 4.109000000000000000e+03 4.109000000000000000e+03 4.109000000000000000e+03 4.082000000000000000e+03 4.082000000000000000e+03 4.055000000000000000e+03 4.055000000000000000e+03 4.003000000000000000e+03 3.977000000000000000e+03 3.951000000000000000e+03 3.901000000000000000e+03 3.877000000000000000e+03 3.829000000000000000e+03 3.805000000000000000e+03 3.782000000000000000e+03 3.782000000000000000e+03 3.782000000000000000e+03 3.759000000000000000e+03 3.759000000000000000e+03 3.782000000000000000e+03 3.782000000000000000e+03 3.782000000000000000e+03 3.805000000000000000e+03 3.805000000000000000e+03 3.805000000000000000e+03 3.805000000000000000e+03 3.829000000000000000e+03 3.853000000000000000e+03 3.853000000000000000e+03 3.853000000000000000e+03 3.853000000000000000e+03 3.853000000000000000e+03 3.853000000000000000e+03 3.853000000000000000e+03 3.853000000000000000e+03 3.853000000000000000e+03 3.829000000000000000e+03 3.829000000000000000e+03 3.805000000000000000e+03 3.782000000000000000e+03 3.759000000000000000e+03 3.736000000000000000e+03 3.736000000000000000e+03 3.713000000000000000e+03 3.713000000000000000e+03 3.713000000000000000e+03 3.736000000000000000e+03 3.759000000000000000e+03 3.782000000000000000e+03 3.805000000000000000e+03 3.853000000000000000e+03 3.901000000000000000e+03
4.165000000000000000e+03 4.193000000000000000e+03 4.193000000000000000e+03 4.193000000000000000e+03 4.222000000000000000e+03 4.222000000000000000e+03 4.222000000000000000e+03 4.222000000000000000e+03 4.222000000000000000e+03 4.222000000000000000e+03 4.222000000000000000e+03 4.222000000000000000e+03 4.193000000000000000e+03 4.193000000000000000e+03 4.165000000000000000e+03 4.165000000000000000e+03 4.137000000000000000e+03 4.137000000000000000e+03 4.109000000000000000e+03 4.109000000000000000e+03 4.082000000000000000e+03 4.109000000000000000e+03 4.109000000000000000e+03 4.082000000000000000e+03 4.082000000000000000e+03 4.082000000000000000e+03 4.082000000000000000e+03 4.082000000000000000e+03 4.109000000000000000e+03 4.109000000000000000e+03 4.109000000000000000e+03 4.109000000000000000e+03 4.109000000000000000e+03 4.109000000000000000e+03 4.109000000000000000e+03 4.109000000000000000e+03 4.137000000000000000e+03 4.137000000000000000e+03 4.137000000000000000e+03 4.165000000000000000e+03 4.165000000000000000e+03 4.165000000000000000e+03 4.193000000000000000e+03 4.193000000000000000e+03 4.222000000000000000e+03 4.251000000000000000e+03 4.251000000000000000e+03 4.281000000000000000e+03 4.311000000000000000e+03 4.341000000000000000e+03 4.341000000000000000e+03 4.372000000000000000e+03 4.403000000000000000e+03 4.403000000000000000e+03 4.403000000000000000e+03 4.403000000000000000e+03 4.372000000000000000e+03 4.341000000000000000e+03 4.311000000000000000e+03 4.311000000000000000e+03 4.251000000000000000e+03 4.222000000000000000e+03 4.193000000000000000e+03 4.165000000000000000e+03 4.137000000000000000e+03 4.137000000000000000e+03 4.137000000000000000e+03 4.109000000000000000e+03 4.109000000000000000e+03 4.082000000000000000e+03 4.082000000000000000e+03 4.055000000000000000e+03 4.029000000000000000e+03 4.003000000000000000e+03 3.977000000000000000e+03 3.926000000000000000e+03 3.901000000000000000e+03 3.877000000000000000e+03 3.829000000000000000e+03 3.805000000000000000e+03 3.782000000000000000e+03 3.782000000000000000e+03 3.759000000000000000e+03 3.782000000000000000e+03 3.759000000000000000e+03 3.782000000000000000e+03 3.782000000000000000e+03 3.782000000000000000e+03 3.782000000000000000e+03 3.805000000000000000e+03 3.805000000000000000e+03 3.805000000000000000e+03 3.805000000000000000e+03 3.805000000000000000e+03 3.829000000000000000e+03 3.829000000000000000e+03 3.829000000000000000e+03 3.829000000000000000e+03 3.829000000000000000e+03 3.829000000000000000e+03 3.805000000000000000e+03 3.805000000000000000e+03 3.805000000000000000e+03 3.805000000000000000e+03 3.782000000000000000e+03 3.782000000000000000e+03 3.759000000000000000e+03 3.759000000000000000e+03 3.736000000000000000e+03 3.713000000000000000e+03 3.713000000000000000e+03 3.713000000000000000e+03 3.736000000000000000e+03 3.736000000000000000e+03 3.759000000000000000e+03 3.805000000000000000e+03 3.829000000000000000e+03 3.853000000000000000e+03 3.901000000000000000e+03
4.193000000000000000e+03 4.222000000000000000e+03 4.222000000000000000e+03 4.251000000000000000e+03 4.251000000000000000e+03 4.251000000000000000e+03 4.251000000000000000e+03 4.251000000000000000e+03 4.251000000000000000e+03 4.251000000000000000e+03 4.251000000000000000e+03 4.222000000000000000e+03 4.222000000000000000e+03 4.193000000000000000e+03 4.193000000000000000e+03 4.165000000000000000e+03 4.137000000000000000e+03 4.109000000000000000e+03 4.109000000000000000e+03 4.082000000000000000e+03 4.082000000000000000e+03 4.082000000000000000e+03 4.082000000000000000e+03 4.082000000000000000e+03 4.082000000000000000e+03 4.082000000000000000e+03 4.082000000000000000e+03 4.082000000000000000e+03 4.082000000000000000e+03 4.082000000000000000e+03 4.082000000000000000e+03 4.082000000000000000e+03 4.082000000000000000e+03 4.082000000000000000e+03 4.109000000000000000e+03 4.109000000000000000e+03 4.137000000000000000e+03 4.137000000000000000e+03 4.137000000000000000e+03 4.165000000000000000e+03 4.165000000000000000e+03 4.165000000000000000e+03 4.193000000000000000e+03 4.193000000000000000e+03 4.222000000000000000e+03 4.251000000000000000e+03 4.251000000000000000e+03 4.281000000000000000e+03 4.311000000000000000e+03 4.341000000000000000e+03 4.341000000000000000e+03 4.372000000000000000e+03 4.372000000000000000e+03 4.372000000000000000e+03 4.403000000000000000e+03 4.372000000000000000e+03 4.372000000000000000e+03 4.341000000000000000e+03 4.311000000000000000e+03 4.281000000000000000e+03 4.251000000000000000e+03 4.222000000000000000e+03 4.193000000000000000e+03 4.165000000000000000e+03 4.165000000000000000e+03 4.137000000000000000e+03 4.137000000000000000e+03 4.109000000000000000e+03 4.109000000000000000e+03 4.082000000000000000e+03 4.055000000000000000e+03 4.029000000000000000e+03 4.003000000000000000e+03 3.977000000000000000e+03 3.926000000000000000e+03 3.901000000000000000e+03 3.877000000000000000e+03 3.829000000000000000e+03 3.805000000000000000e+03 3.782000000000000000e+03 3.759000000000000000e+03 3.759000000000000000e+03 3.759000000000000000e+03 3.759000000000000000e+03 3.759000000000000000e+03 3.759000000000000000e+03 3.759000000000000000e+03 3.782000000000000000e+03 3.782000000000000000e+03 3.782000000000000000e+03 3.805000000000000000e+03 3.805000000000000000e+03 3.805000000000000000e+03 3.805000000000000000e+03 3.829000000000000000e+03 3.829000000000000000e+03 3.829000000000000000e+03 3.829000000000000000e+03 3.829000000000000000e+03 3.829000000000000000e+03 3.805000000000000000e+03 3.805000000000000000e+03 3.805000000000000000e+03 3.805000000000000000e+03 3.782000000000000000e+03 3.782000000000000000e+03 3.759000000000000000e+03 3.736000000000000000e+03 3.736000000000000000e+03 3.736000000000000000e+03 3.736000000000000000e+03 3.736000000000000000e+03 3.736000000000000000e+03 3.759000000000000000e+03 3.782000000000000000e+03 3.805000000000000000e+03 3.853000000000000000e+03 3.877000000000000000e+03 3.901000000000000000e+03
4.222000000000000000e+03 4.251000000000000000e+03 4.251000000000000000e+03 4.281000000000000000e+03 4.281000000000000000e+03 4.281000000000000000e+03 4.281000000000000000e+03 4.281000000000000000e+03 4.281000000000000000e+03 4.281000000000000000e+03 4.251000000000000000e+03 4.222000000000000000e+03 4.222000000000000000e+03 4.193000000000000000e+03 4.165000000000000000e+03 4.137000000000000000e+03 4.137000000000000000e+03 4.109000000000000000e+03 4.082000000000000000e+03 4.082000000000000000e+03 4.055000000000000000e+03 4.055000000000000000e+03 4.055000000000000000e+03 4.055000000000000000e+03 4.055000000000000000e+03 4.055000000000000000e+03 4.055000000000000000e+03 4.055000000000000000e+03 4.055000000000000000e+03 4.055000000000000000e+03 4.055000000000000000e+03 4.055000000000000000e+03 4.082000000000000000e+03 4.082000000000000000e+03 4.109000000000000000e+03 4.109000000000000000e+03 4.109000000000000000e+03 4.137000000000000000e+03 4.137000000000000000e+03 4.137000000000000000e+03 4.165000000000000000e+03 4.165000000000000000e+03 4.193000000000000000e+03 4.222000000000000000e+03 4.222000000000000000e+03 4.251000000000000000e+03 4.281000000000000000e+03 4.311000000000000000e+03 4.341000000000000000e+03 4.341000000000000000e+03 4.372000000000000000e+03 4.403000000000000000e+03 4.403000000000000000e+03 4.403000000000000000e+03 4.403000000000000000e+03 4.403000000000000000e+03 4.372000000000000000e+03 4.341000000000000000e+03 4.311000000000000000e+03 4.281000000000000000e+03 4.251000000000000000e+03 4.222000000000000000e+03 4.193000000000000000e+03 4.193000000000000000e+03 4.165000000000000000e+03 4.165000000000000000e+03 4.137000000000000000e+03 4.109000000000000000e+03 4.082000000000000000e+03 4.055000000000000000e+03 4.029000000000000000e+03 4.003000000000000000e+03 3.977000000000000000e+03 3.951000000000000000e+03 3.901000000000000000e+03 3.877000000000000000e+03 3.829000000000000000e+03 3.805000000000000000e+03 3.782000000000000000e+03 3.759000000000000000e+03 3.736000000000000000e+03 3.736000000000000000e+03 3.736000000000000000e+03 3.736000000000000000e+03 3.736000000000000000e+03 3.759000000000000000e+03 3.759000000000000000e+03 3.759000000000000000e+03 3.782000000000000000e+03 3.782000000000000000e+03 3.782000000000000000e+03 3.782000000000000000e+03 3.782000000000000000e+03 3.805000000000000000e+03 3.805000000000000000e+03 3.805000000000000000e+03 3.805000000000000000e+03 3.805000000000000000e+03 3.805000000000000000e+03 3.782000000000000000e+03 3.782000000000000000e+03 3.782000000000000000e+03 3.782000000000000000e+03 3.782000000000000000e+03 3.759000000000000000e+03 3.759000000000000000e+03 3.759000000000000000e+03 3.759000000000000000e+03 3.736000000000000000e+03 3.736000000000000000e+03 3.759000000000000000e+03 3.759000000000000000e+03 3.759000000000000000e+03 3.782000000000000000e+03 3.805000000000000000e+03 3.829000000000000000e+03 3.853000000000000000e+03 3.877000000000000000e+03 3.901000000000000000e+03
4.251000000000000000e+03 4.281000000000000000e+03 4.281000000000000000e+03 4.311000000000000000e+03 4.311000000000000000e+03 4.311000000000000000e+03 4.311000000000000000e+03 4.281000000000000000e+03 4.281000000000000000e+03 4.251000000000000000e+03 4.251000000000000000e+03 4.222000000000000000e+03 4.193000000000000000e+03 4.165000000000000000e+03 4.137000000000000000e+03 4.137000000000000000e+03 4.109000000000000000e+03 4.109000000000000000e+03 4.082000000000000000e+03 4.055000000000000000e+03 4.055000000000000000e+03 4.055000000000000000e+03 4.029000000000000000e+03 4.029000000000000000e+03 4.029000000000000000e+03 4.029000000000000000e+03 4.029000000000000000e+03 4.029000000000000000e+03 4.029000000000000000e+03 4.055000000000000000e+03 4.055000000000000000e+03 4.055000000000000000e+03 4.082000000000000000e+03 4.082000000000000000e+03 4.082000000000000000e+03 4.109000000000000000e+03 4.109000000000000000e+03 4.137000000000000000e+03 4.137000000000000000e+03 4.165000000000000000e+03 4.165000000000000000e+03 4.193000000000000000e+03 4.193000000000000000e+03 4.222000000000000000e+03 4.251000000000000000e+03 4.251000000000000000e+03 4.281000000000000000e+03 4.341000000000000000e+03 4.341000000000000000e+03 4.372000000000000000e+03 4.403000000000000000e+03 4.403000000000000000e+03 4.435000000000000000e+03 4.435000000000000000e+03 4.435000000000000000e+03 4.435000000000000000e+03 4.403000000000000000e+03 4.341000000000000000e+03 4.341000000000000000e+03 4.311000000000000000e+03 4.281000000000000000e+03 4.251000000000000000e+03 4.222000000000000000e+03 4.193000000000000000e+03 4.165000000000000000e+03 4.165000000000000000e+03 4.137000000000000000e+03 4.109000000000000000e+03 4.082000000000000000e+03 4.055000000000000000e+03 4.029000000000000000e+03 4.003000000000000000e+03 3.951000000000000000e+03 3.926000000000000000e+03 3.877000000000000000e+03 3.853000000000000000e+03 3.805000000000000000e+03 3.782000000000000000e+03 3.759000000000000000e+03 3.736000000000000000e+03 3.736000000000000000e+03 3.736000000000000000e+03 3.736000000000000000e+03 3.736000000000000000e+03 3.736000000000000000e+03 3.759000000000000000e+03 3.759000000000000000e+03 3.759000000000000000e+03 3.759000000000000000e+03 3.782000000000000000e+03 3.782000000000000000e+03 3.782000000000000000e+03 3.782000000000000000e+03 3.782000000000000000e+03 3.782000000000000000e+03 3.805000000000000000e+03 3.782000000000000000e+03 3.782000000000000000e+03 3.759000000000000000e+03 3.759000000000000000e+03 3.759000000000000000e+03 3.759000000000000000e+03 3.759000000000000000e+03 3.759000000000000000e+03 3.759000000000000000e+03 3.759000000000000000e+03 3.759000000000000000e+03 3.759000000000000000e+03 3.759000000000000000e+03 3.759000000000000000e+03 3.759000000000000000e+03 3.782000000000000000e+03 3.805000000000000000e+03 3.805000000000000000e+03 3.829000000000000000e+03 3.853000000000000000e+03 3.877000000000000000e+03 3.901000000000000000e+03 3.926000000000000000e+03
4.281000000000000000e+03 4.281000000000000000e+03 4.281000000000000000e+03 4.311000000000000000e+03 4.311000000000000000e+03 4.311000000000000000e+03 4.281000000000000000e+03 4.281000000000000000e+03 4.251000000000000000e+03 4.251000000000000000e+03 4.222000000000000000e+03 4.193000000000000000e+03 4.165000000000000000e+03 4.137000000000000000e+03 4.137000000000000000e+03 4.109000000000000000e+03 4.109000000000000000e+03 4.082000000000000000e+03 4.082000000000000000e+03 4.055000000000000000e+03 4.055000000000000000e+03 4.029000000000000000e+03 4.029000000000000000e+03 4.029000000000000000e+03 4.029000000000000000e+03 4.029000000000000000e+03 4.029000000000000000e+03 4.029000000000000000e+03 4.029000000000000000e+03 4.029000000000000000e+03 4.055000000000000000e+03 4.055000000000000000e+03 4.055000000000000000e+03 4.082000000000000000e+03 4.082000000000000000e+03 4.109000000000000000e+03 4.109000000000000000e+03 4.137000000000000000e+03 4.137000000000000000e+03 4.165000000000000000e+03 4.165000000000000000e+03 4.193000000000000000e+03 4.222000000000000000e+03 4.222000000000000000e+03 4.251000000000000000e+03 4.281000000000000000e+03 4.311000000000000000e+03 4.341000000000000000e+03 4.372000000000000000e+03 4.403000000000000000e+03 4.435000000000000000e+03 4.467000000000000000e+03 4.467000000000000000e+03 4.467000000000000000e+03 4.499000000000000000e+03 4.467000000000000000e+03 4.435000000000000000e+03 4.403000000000000000e+03 4.372000000000000000e+03 4.341000000000000000e+03 4.311000000000000000e+03 4.251000000000000000e+03 4.251000000000000000e+03 4.193000000000000000e+03 4.165000000000000000e+03 4.165000000000000000e+03 4.137000000000000000e+03 4.109000000000000000e+03 4.082000000000000000e+03 4.055000000000000000e+03 4.029000000000000000e+03 3.977000000000000000e+03 3.951000000000000000e+03 3.901000000000000000e+03 3.877000000000000000e+03 3.853000000000000000e+03 3.805000000000000000e+03 3.782000000000000000e+03 3.759000000000000000e+03 3.759000000000000000e+03 3.759000000000000000e+03 3.759000000000000000e+03 3.759000000000000000e+03 3.759000000000000000e+03 3.759000000000000000e+03 3.782000000000000000e+03 3.782000000000000000e+03 3.782000000000000000e+03 3.782000000000000000e+03 3.782000000000000000e+03 3.782000000000000000e+03 3.782000000000000000e+03 3.782000000000000000e+03 3.759000000000000000e+03 3.782000000000000000e+03 3.782000000000000000e+03 3.759000000000000000e+03 3.759000000000000000e+03 3.759000000000000000e+03 3.759000000000000000e+03 3.759000000000000000e+03 3.759000000000000000e+03 3.759000000000000000e+03 3.759000000000000000e+03 3.782000000000000000e+03 3.782000000000000000e+03 3.782000000000000000e+03 3.782000000000000000e+03 3.782000000000000000e+03 3.782000000000000000e+03 3.805000000000000000e+03 3.805000000000000000e+03 3.805000000000000000e+03 3.829000000000000000e+03 3.853000000000000000e+03 3.877000000000000000e+03 3.901000000000000000e+03 3.901000000000000000e+03 3.926000000000000000e+03
4.281000000000000000e+03 4.311000000000000000e+03 4.311000000000000000e+03 4.311000000000000000e+03 4.311000000000000000e+03 4.311000000000000000e+03 4.281000000000000000e+03 4.251000000000000000e+03 4.251000000000000000e+03 4.222000000000000000e+03 4.193000000000000000e+03 4.165000000000000000e+03 4.137000000000000000e+03 4.137000000000000000e+03 4.109000000000000000e+03 4.082000000000000000e+03 4.082000000000000000e+03 4.055000000000000000e+03 4.055000000000000000e+03 4.055000000000000000e+03 4.029000000000000000e+03 4.029000000000000000e+03 4.029000000000000000e+03 4.029000000000000000e+03 4.029000000000000000e+03 4.029000000000000000e+03 4.029000000000000000e+03 4.029000000000000000e+03 4.029000000000000000e+03 4.029000000000000000e+03 4.029000000000000000e+03 4.055000000000000000e+03 4.055000000000000000e+03 4.082000000000000000e+03 4.082000000000000000e+03 4.109000000000000000e+03 4.109000000000000000e+03 4.137000000000000000e+03 4.165000000000000000e+03 4.165000000000000000e+03 4.193000000000000000e+03 4.193000000000000000e+03 4.222000000000000000e+03 4.251000000000000000e+03 4.281000000000000000e+03 4.311000000000000000e+03 4.341000000000000000e+03 4.372000000000000000e+03 4.435000000000000000e+03 4.467000000000000000e+03 4.499000000000000000e+03 4.499000000000000000e+03 4.566000000000000000e+03 4.566000000000000000e+03 4.532000000000000000e+03 4.532000000000000000e+03 4.499000000000000000e+03 4.467000000000000000e+03 4.435000000000000000e+03 4.372000000000000000e+03 4.341000000000000000e+03 4.311000000000000000e+03 4.281000000000000000e+03 4.222000000000000000e+03 4.193000000000000000e+03 4.165000000000000000e+03 4.165000000000000000e+03 4.137000000000000000e+03 4.109000000000000000e+03 4.082000000000000000e+03 4.029000000000000000e+03 4.003000000000000000e+03 3.951000000000000000e+03 3.926000000000000000e+03 3.877000000000000000e+03 3.853000000000000000e+03 3.829000000000000000e+03 3.805000000000000000e+03 3.782000000000000000e+03 3.782000000000000000e+03 3.782000000000000000e+03 3.782000000000000000e+03 3.782000000000000000e+03 3.805000000000000000e+03 3.805000000000000000e+03 3.829000000000000000e+03 3.829000000000000000e+03 3.829000000000000000e+03 3.829000000000000000e+03 3.829000000000000000e+03 3.829000000000000000e+03 3.829000000000000000e+03 3.829000000000000000e+03 3.805000000000000000e+03 3.805000000000000000e+03 3.805000000000000000e+03 3.782000000000000000e+03 3.782000000000000000e+03 3.782000000000000000e+03 3.782000000000000000e+03 3.782000000000000000e+03 3.782000000000000000e+03 3.782000000000000000e+03 3.805000000000000000e+03 3.805000000000000000e+03 3.805000000000000000e+03 3.805000000000000000e+03 3.805000000000000000e+03 3.805000000000000000e+03 3.805000000000000000e+03 3.829000000000000000e+03 3.829000000000000000e+03 3.853000000000000000e+03 3.877000000000000000e+03 3.877000000000000000e+03 3.901000000000000000e+03 3.901000000000000000e+03 3.926000000000000000e+03 3.951000000000000000e+03
4.281000000000000000e+03 4.311000000000000000e+03 4.281000000000000000e+03 4.281000000000000000e+03 4.281000000000000000e+03 4.251000000000000000e+03 4.251000000000000000e+03 4.222000000000000000e+03 4.222000000000000000e+03 4.193000000000000000e+03 4.165000000000000000e+03 4.137000000000000000e+03 4.109000000000000000e+03 4.109000000000000000e+03 4.082000000000000000e+03 4.082000000000000000e+03 4.055000000000000000e+03 4.055000000000000000e+03 4.029000000000000000e+03 4.029000000000000000e+03 4.029000000000000000e+03 4.029000000000000000e+03 4.003000000000000000e+03 4.003000000000000000e+03 4.003000000000000000e+03 4.003000000000000000e+03 4.003000000000000000e+03 4.003000000000000000e+03 4.029000000000000000e+03 4.029000000000000000e+03 4.029000000000000000e+03 4.055000000000000000e+03 4.055000000000000000e+03 4.082000000000000000e+03 4.082000000000000000e+03 4.109000000000000000e+03 4.137000000000000000e+03 4.137000000000000000e+03 4.165000000000000000e+03 4.193000000000000000e+03 4.193000000000000000e+03 4.222000000000000000e+03 4.251000000000000000e+03 4.251000000000000000e+03 4.281000000000000000e+03 4.311000000000000000e+03 4.372000000000000000e+03 4.403000000000000000e+03 4.467000000000000000e+03 4.499000000000000000e+03 4.532000000000000000e+03 4.566000000000000000e+03 4.600000000000000000e+03 4.600000000000000000e+03 4.635000000000000000e+03 4.600000000000000000e+03 4.566000000000000000e+03 4.499000000000000000e+03 4.467000000000000000e+03 4.435000000000000000e+03 4.403000000000000000e+03 4.341000000000000000e+03 4.311000000000000000e+03 4.251000000000000000e+03 4.222000000000000000e+03 4.193000000000000000e+03 4.165000000000000000e+03 4.165000000000000000e+03 4.109000000000000000e+03 4.082000000000000000e+03 4.029000000000000000e+03 4.003000000000000000e+03 3.951000000000000000e+03 3.926000000000000000e+03 3.901000000000000000e+03 3.877000000000000000e+03 3.853000000000000000e+03 3.829000000000000000e+03 3.829000000000000000e+03 3.829000000000000000e+03 3.829000000000000000e+03 3.829000000000000000e+03 3.853000000000000000e+03 3.853000000000000000e+03 3.853000000000000000e+03 3.877000000000000000e+03 3.877000000000000000e+03 3.877000000000000000e+03 3.877000000000000000e+03 3.877000000000000000e+03 3.877000000000000000e+03 3.877000000000000000e+03 3.877000000000000000e+03 3.853000000000000000e+03 3.853000000000000000e+03 3.853000000000000000e+03 3.829000000000000000e+03 3.829000000000000000e+03 3.829000000000000000e+03 3.805000000000000000e+03 3.805000000000000000e+03 3.805000000000000000e+03 3.805000000000000000e+03 3.829000000000000000e+03 3.829000000000000000e+03 3.829000000000000000e+03 3.829000000000000000e+03 3.829000000000000000e+03 3.829000000000000000e+03 3.853000000000000000e+03 3.853000000000000000e+03 3.877000000000000000e+03 3.877000000000000000e+03 3.877000000000000000e+03 3.901000000000000000e+03 3.926000000000000000e+03 3.926000000000000000e+03 3.951000000000000000e+03 3.951000000000000000e+03
4.281000000000000000e+03 4.281000000000000000e+03 4.281000000000000000e+03 4.251000000000000000e+03 4.251000000000000000e+03 4.222000000000000000e+03 4.222000000000000000e+03 4.193000000000000000e+03 4.165000000000000000e+03 4.137000000000000000e+03 4.137000000000000000e+03 4.109000000000000000e+03 4.082000000000000000e+03 4.082000000000000000e+03 4.055000000000000000e+03 4.055000000000000000e+03 4.029000000000000000e+03 4.029000000000000000e+03 4.029000000000000000e+03 4.003000000000000000e+03 4.003000000000000000e+03 4.003000000000000000e+03 4.003000000000000000e+03 4.003000000000000000e+03 4.003000000000000000e+03 4.003000000000000000e+03 4.003000000000000000e+03 4.003000000000000000e+03 4.003000000000000000e+03 4.029000000000000000e+03 4.029000000000000000e+03 4.055000000000000000e+03 4.055000000000000000e+03 4.082000000000000000e+03 4.109000000000000000e+03 4.109000000000000000e+03 4.137000000000000000e+03 4.165000000000000000e+03 4.165000000000000000e+03 4.193000000000000000e+03 4.222000000000000000e+03 4.222000000000000000e+03 4.251000000000000000e+03 4.281000000000000000e+03 4.311000000000000000e+03 4.341000000000000000e+03 4.403000000000000000e+03 4.435000000000000000e+03 4.499000000000000000e+03 4.532000000000000000e+03 4.600000000000000000e+03 4.635000000000000000e+03 4.670000000000000000e+03 4.670000000000000000e+03 4.670000000000000000e+03 4.670000000000000000e+03 4.600000000000000000e+03 4.566000000000000000e+03 4.532000000000000000e+03 4.467000000000000000e+03 4.435000000000000000e+03 4.403000000000000000e+03 4.341000000000000000e+03 4.311000000000000000e+03 4.251000000000000000e+03 4.251000000000000000e+03 4.222000000000000000e+03 4.193000000000000000e+03 4.165000000000000000e+03 4.109000000000000000e+03 4.082000000000000000e+03 4.029000000000000000e+03 4.003000000000000000e+03 3.977000000000000000e+03 3.951000000000000000e+03 3.926000000000000000e+03 3.901000000000000000e+03 3.877000000000000000e+03 3.901000000000000000e+03 3.877000000000000000e+03 3.901000000000000000e+03 3.901000000000000000e+03 3.901000000000000000e+03 3.926000000000000000e+03 3.901000000000000000e+03 3.926000000000000000e+03 3.926000000000000000e+03 3.926000000000000000e+03 3.926000000000000000e+03 3.926000000000000000e+03 3.926000000000000000e+03 3.926000000000000000e+03 3.926000000000000000e+03 3.901000000000000000e+03 3.901000000000000000e+03 3.901000000000000000e+03 3.877000000000000000e+03 3.853000000000000000e+03 3.853000000000000000e+03 3.853000000000000000e+03 3.853000000000000000e+03 3.853000000000000000e+03 3.853000000000000000e+03 3.853000000000000000e+03 3.853000000000000000e+03 3.853000000000000000e+03 3.853000000000000000e+03 3.877000000000000000e+03 3.877000000000000000e+03 3.877000000000000000e+03 3.877000000000000000e+03 3.901000000000000000e+03 3.901000000000000000e+03 3.926000000000000000e+03 3.926000000000000000e+03 3.926000000000000000e+03 3.951000000000000000e+03 3.951000000000000000e+03 3.951000000000000000e+03
4.251000000000000000e+03 4.251000000000000000e+03 4.251000000000000000e+03 4.222000000000000000e+03 4.222000000000000000e+03 4.193000000000000000e+03 4.165000000000000000e+03 4.137000000000000000e+03 4.137000000000000000e+03 4.109000000000000000e+03 4.109000000000000000e+03 4.082000000000000000e+03 4.082000000000000000e+03 4.055000000000000000e+03 4.055000000000000000e+03 4.029000000000000000e+03 4.029000000000000000e+03 4.003000000000000000e+03 4.003000000000000000e+03 4.003000000000000000e+03 4.003000000000000000e+03 4.003000000000000000e+03 4.003000000000000000e+03 4.003000000000000000e+03 4.003000000000000000e+03 4.003000000000000000e+03 4.003000000000000000e+03 4.003000000000000000e+03 4.003000000000000000e+03 4.029000000000000000e+03 4.029000000000000000e+03 4.055000000000000000e+03 4.055000000000000000e+03 4.082000000000000000e+03 4.109000000000000000e+03 4.137000000000000000e+03 4.165000000000000000e+03 4.165000000000000000e+03 4.193000000000000000e+03 4.222000000000000000e+03 4.222000000000000000e+03 4.251000000000000000e+03 4.281000000000000000e+03 4.281000000000000000e+03 4.311000000000000000e+03 4.341000000000000000e+03 4.403000000000000000e+03 4.467000000000000000e+03 4.499000000000000000e+03 4.566000000000000000e+03 4.600000000000000000e+03 4.635000000000000000e+03 4.705000000000000000e+03 4.705000000000000000e+03 4.705000000000000000e+03 4.705000000000000000e+03 4.670000000000000000e+03 4.635000000000000000e+03 4.566000000000000000e+03 4.532000000000000000e+03 4.499000000000000000e+03 4.435000000000000000e+03 4.403000000000000000e+03 4.341000000000000000e+03 4.311000000000000000e+03 4.281000000000000000e+03 4.251000000000000000e+03 4.222000000000000000e+03 4.193000000000000000e+03 4.165000000000000000e+03 4.109000000000000000e+03 4.082000000000000000e+03 4.055000000000000000e+03 4.029000000000000000e+03 4.003000000000000000e+03 3.977000000000000000e+03 3.951000000000000000e+03 3.951000000000000000e+03 3.951000000000000000e+03 3.951000000000000000e+03 3.977000000000000000e+03 3.977000000000000000e+03 3.977000000000000000e+03 4.003000000000000000e+03 4.003000000000000000e+03 4.003000000000000000e+03 4.003000000000000000e+03 4.003000000000000000e+03 4.003000000000000000e+03 4.003000000000000000e+03 4.003000000000000000e+03 4.003000000000000000e+03 4.003000000000000000e+03 3.977000000000000000e+03 3.977000000000000000e+03 3.977000000000000000e+03 3.926000000000000000e+03 3.926000000000000000e+03 3.926000000000000000e+03 3.901000000000000000e+03 3.901000000000000000e+03 3.877000000000000000e+03 3.901000000000000000e+03 3.901000000000000000e+03 3.901000000000000000e+03 3.901000000000000000e+03 3.901000000000000000e+03 3.901000000000000000e+03 3.901000000000000000e+03 3.901000000000000000e+03 3.926000000000000000e+03 3.926000000000000000e+03 3.926000000000000000e+03 3.926000000000000000e+03 3.951000000000000000e+03 3.951000000000000000e+03 3.951000000000000000e+03 3.951000000000000000e+03 3.951000000000000000e+03
4.222000000000000000e+03 4.222000000000000000e+03 4.193000000000000000e+03 4.193000000000000000e+03 4.193000000000000000e+03 4.165000000000000000e+03 4.137000000000000000e+03 4.109000000000000000e+03 4.109000000000000000e+03 4.082000000000000000e+03 4.055000000000000000e+03 4.055000000000000000e+03 4.055000000000000000e+03 4.029000000000000000e+03 4.029000000000000000e+03 4.003000000000000000e+03 4.003000000000000000e+03 4.003000000000000000e+03 4.003000000000000000e+03 4.029000000000000000e+03 4.003000000000000000e+03 4.003000000000000000e+03 4.003000000000000000e+03 4.003000000000000000e+03 4.029000000000000000e+03 4.003000000000000000e+03 4.003000000000000000e+03 4.003000000000000000e+03 4.003000000000000000e+03 4.029000000000000000e+03 4.029000000000000000e+03 4.055000000000000000e+03 4.082000000000000000e+03 4.082000000000000000e+03 4.109000000000000000e+03 4.137000000000000000e+03 4.165000000000000000e+03 4.193000000000000000e+03 4.193000000000000000e+03 4.222000000000000000e+03 4.251000000000000000e+03 4.251000000000000000e+03 4.281000000000000000e+03 4.281000000000000000e+03 4.341000000000000000e+03 4.372000000000000000e+03 4.403000000000000000e+03 4.467000000000000000e+03 4.499000000000000000e+03 4.566000000000000000e+03 4.600000000000000000e+03 4.670000000000000000e+03 4.705000000000000000e+03 4.705000000000000000e+03 4.742000000000000000e+03 4.705000000000000000e+03 4.705000000000000000e+03 4.635000000000000000e+03 4.635000000000000000e+03 4.566000000000000000e+03 4.532000000000000000e+03 4.499000000000000000e+03 4.435000000000000000e+03 4.403000000000000000e+03 4.341000000000000000e+03 4.311000000000000000e+03 4.311000000000000000e+03 4.281000000000000000e+03 4.251000000000000000e+03 4.222000000000000000e+03 4.165000000000000000e+03 4.137000000000000000e+03 4.109000000000000000e+03 4.082000000000000000e+03 4.055000000000000000e+03 4.055000000000000000e+03 4.029000000000000000e+03 4.029000000000000000e+03 4.029000000000000000e+03 4.029000000000000000e+03 4.029000000000000000e+03 4.055000000000000000e+03 4.055000000000000000e+03 4.055000000000000000e+03 4.055000000000000000e+03 4.082000000000000000e+03 4.082000000000000000e+03 4.082000000000000000e+03 4.055000000000000000e+03 4.055000000000000000e+03 4.055000000000000000e+03 4.055000000000000000e+03 4.055000000000000000e+03 4.029000000000000000e+03 4.029000000000000000e+03 4.029000000000000000e+03 3.977000000000000000e+03 3.977000000000000000e+03 3.977000000000000000e+03 3.977000000000000000e+03 3.951000000000000000e+03 3.926000000000000000e+03 3.926000000000000000e+03 3.926000000000000000e+03 3.926000000000000000e+03 3.926000000000000000e+03 3.926000000000000000e+03 3.951000000000000000e+03 3.926000000000000000e+03 3.926000000000000000e+03 3.951000000000000000e+03 3.951000000000000000e+03 3.951000000000000000e+03 3.951000000000000000e+03 3.951000000000000000e+03 3.951000000000000000e+03 3.951000000000000000e+03 3.977000000000000000e+03 3.977000000000000000e+03
4.193000000000000000e+03 4.165000000000000000e+03 4.165000000000000000e+03 4.165000000000000000e+03 4.137000000000000000e+03 4.109000000000000000e+03 4.082000000000000000e+03 4.082000000000000000e+03 4.055000000000000000e+03 4.055000000000000000e+03 4.029000000000000000e+03 4.029000000000000000e+03 4.029000000000000000e+03 4.003000000000000000e+03 4.003000000000000000e+03 4.003000000000000000e+03 4.029000000000000000e+03 4.003000000000000000e+03 4.003000000000000000e+03 4.003000000000000000e+03 4.003000000000000000e+03 4.003000000000000000e+03 4.029000000000000000e+03 4.029000000000000000e+03 4.029000000000000000e+03 4.029000000000000000e+03 4.029000000000000000e+03 4.029000000000000000e+03 4.029000000000000000e+03 4.029000000000000000e+03 4.029000000000000000e+03 4.055000000000000000e+03 4.082000000000000000e+03 4.082000000000000000e+03 4.109000000000000000e+03 4.137000000000000000e+03 4.165000000000000000e+03 4.193000000000000000e+03 4.222000000000000000e+03 4.222000000000000000e+03 4.281000000000000000e+03 4.311000000000000000e+03 4.311000000000000000e+03 4.341000000000000000e+03 4.372000000000000000e+03 4.372000000000000000e+03 4.435000000000000000e+03 4.467000000000000000e+03 4.532000000000000000e+03 4.566000000000000000e+03 4.635000000000000000e+03 4.670000000000000000e+03 4.705000000000000000e+03 4.742000000000000000e+03 4.742000000000000000e+03 4.742000000000000000e+03 4.705000000000000000e+03 4.670000000000000000e+03 4.635000000000000000e+03 4.600000000000000000e+03 4.566000000000000000e+03 4.499000000000000000e+03 4.467000000000000000e+03 4.435000000000000000e+03 4.403000000000000000e+03 4.372000000000000000e+03 4.341000000000000000e+03 4.311000000000000000e+03 4.281000000000000000e+03 4.251000000000000000e+03 4.222000000000000000e+03 4.193000000000000000e+03 4.193000000000000000e+03 4.165000000000000000e+03 4.137000000000000000e+03 4.109000000000000000e+03 4.082000000000000000e+03 4.109000000000000000e+03 4.109000000000000000e+03 4.109000000000000000e+03 4.137000000000000000e+03 4.137000000000000000e+03 4.137000000000000000e+03 4.137000000000000000e+03 4.137000000000000000e+03 4.165000000000000000e+03 4.165000000000000000e+03 4.165000000000000000e+03 4.137000000000000000e+03 4.137000000000000000e+03 4.137000000000000000e+03 4.137000000000000000e+03 4.109000000000000000e+03 4.082000000000000000e+03 4.055000000000000000e+03 4.055000000000000000e+03 4.029000000000000000e+03 4.003000000000000000e+03 4.003000000000000000e+03 3.977000000000000000e+03 3.977000000000000000e+03 3.951000000000000000e+03 3.951000000000000000e+03 3.951000000000000000e+03 3.951000000000000000e+03 3.951000000000000000e+03 3.951000000000000000e+03 3.951000000000000000e+03 3.951000000000000000e+03 3.951000000000000000e+03 3.951000000000000000e+03 3.951000000000000000e+03 3.951000000000000000e+03 3.951000000000000000e+03 3.951000000000000000e+03 3.951000000000000000e+03 3.951000000000000000e+03 3.977000000000000000e+03 3.977000000000000000e+03
4.165000000000000000e+03 4.137000000000000000e+03 4.137000000000000000e+03 4.109000000000000000e+03 4.082000000000000000e+03 4.082000000000000000e+03 4.055000000000000000e+03 4.029000000000000000e+03 4.029000000000000000e+03 4.029000000000000000e+03 4.003000000000000000e+03 4.003000000000000000e+03 4.003000000000000000e+03 4.003000000000000000e+03 4.003000000000000000e+03 4.029000000000000000e+03 4.029000000000000000e+03 4.029000000000000000e+03 4.029000000000000000e+03 4.029000000000000000e+03 4.029000000000000000e+03 4.029000000000000000e+03 4.029000000000000000e+03 4.029000000000000000e+03 4.029000000000000000e+03 4.029000000000000000e+03 4.029000000000000000e+03 4.029000000000000000e+03 4.029000000000000000e+03 4.029000000000000000e+03 4.055000000000000000e+03 4.055000000000000000e+03 4.082000000000000000e+03 4.109000000000000000e+03 4.137000000000000000e+03 4.165000000000000000e+03 4.193000000000000000e+03 4.222000000000000000e+03 4.251000000000000000e+03 4.281000000000000000e+03 4.311000000000000000e+03 4.341000000000000000e+03 4.341000000000000000e+03 4.372000000000000000e+03 4.403000000000000000e+03 4.435000000000000000e+03 4.467000000000000000e+03 4.499000000000000000e+03 4.532000000000000000e+03 4.600000000000000000e+03 4.635000000000000000e+03 4.670000000000000000e+03 4.705000000000000000e+03 4.705000000000000000e+03 4.742000000000000000e+03 4.742000000000000000e+03 4.705000000000000000e+03 4.670000000000000000e+03 4.670000000000000000e+03 4.600000000000000000e+03 4.566000000000000000e+03 4.532000000000000000e+03 4.499000000000000000e+03 4.467000000000000000e+03 4.435000000000000000e+03 4.403000000000000000e+03 4.372000000000000000e+03 4.372000000000000000e+03 4.341000000000000000e+03 4.311000000000000000e+03 4.281000000000000000e+03 4.251000000000000000e+03 4.222000000000000000e+03 4.193000000000000000e+03 4.193000000000000000e+03 4.193000000000000000e+03 4.165000000000000000e+03 4.165000000000000000e+03 4.193000000000000000e+03 4.193000000000000000e+03 4.193000000000000000e+03 4.222000000000000000e+03 4.222000000000000000e+03 4.222000000000000000e+03 4.222000000000000000e+03 4.222000000000000000e+03 4.222000000000000000e+03 4.193000000000000000e+03 4.193000000000000000e+03 4.165000000000000000e+03 4.165000000000000000e+03 4.137000000000000000e+03 4.137000000000000000e+03 4.137000000000000000e+03 4.109000000000000000e+03 4.082000000000000000e+03 4.029000000000000000e+03 4.029000000000000000e+03 4.003000000000000000e+03 4.003000000000000000e+03 3.977000000000000000e+03 3.977000000000000000e+03 3.977000000000000000e+03 3.977000000000000000e+03 3.977000000000000000e+03 3.977000000000000000e+03 3.977000000000000000e+03 3.977000000000000000e+03 3.977000000000000000e+03 3.977000000000000000e+03 3.951000000000000000e+03 3.977000000000000000e+03 3.951000000000000000e+03 3.951000000000000000e+03 3.977000000000000000e+03 3.977000000000000000e+03 3.977000000000000000e+03 3.977000000000000000e+03 3.977000000000000000e+03
4.109000000000000000e+03 4.109000000000000000e+03 4.082000000000000000e+03 4.082000000000000000e+03 4.055000000000000000e+03 4.055000000000000000e+03 4.029000000000000000e+03 4.029000000000000000e+03 4.029000000000000000e+03 4.003000000000000000e+03 4.003000000000000000e+03 4.003000000000000000e+03 4.029000000000000000e+03 4.029000000000000000e+03 4.029000000000000000e+03 4.029000000000000000e+03 4.029000000000000000e+03 4.055000000000000000e+03 4.055000000000000000e+03 4.055000000000000000e+03 4.055000000000000000e+03 4.055000000000000000e+03 4.055000000000000000e+03 4.055000000000000000e+03 4.055000000000000000e+03 4.055000000000000000e+03 4.055000000000000000e+03 4.055000000000000000e+03 4.029000000000000000e+03 4.055000000000000000e+03 4.055000000000000000e+03 4.082000000000000000e+03 4.109000000000000000e+03 4.109000000000000000e+03 4.137000000000000000e+03 4.193000000000000000e+03 4.222000000000000000e+03 4.251000000000000000e+03 4.281000000000000000e+03 4.311000000000000000e+03 4.341000000000000000e+03 4.372000000000000000e+03 4.403000000000000000e+03 4.403000000000000000e+03 4.435000000000000000e+03 4.467000000000000000e+03 4.499000000000000000e+03 4.532000000000000000e+03 4.566000000000000000e+03 4.600000000000000000e+03 4.635000000000000000e+03 4.670000000000000000e+03 4.705000000000000000e+03 4.705000000000000000e+03 4.705000000000000000e+03 4.705000000000000000e+03 4.705000000000000000e+03 4.670000000000000000e+03 4.635000000000000000e+03 4.635000000000000000e+03 4.600000000000000000e+03 4.566000000000000000e+03 4.532000000000000000e+03 4.499000000000000000e+03 4.467000000000000000e+03 4.435000000000000000e+03 4.435000000000000000e+03 4.403000000000000000e+03 4.372000000000000000e+03 4.341000000000000000e+03 4.341000000000000000e+03 4.311000000000000000e+03 4.281000000000000000e+03 4.251000000000000000e+03 4.251000000000000000e+03 4.251000000000000000e+03 4.222000000000000000e+03 4.222000000000000000e+03 4.251000000000000000e+03 4.251000000000000000e+03 4.251000000000000000e+03 4.251000000000000000e+03 4.281000000000000000e+03 4.281000000000000000e+03 4.281000000000000000e+03 4.281000000000000000e+03 4.281000000000000000e+03 4.251000000000000000e+03 4.222000000000000000e+03 4.222000000000000000e+03 4.193000000000000000e+03 4.165000000000000000e+03 4.165000000000000000e+03 4.109000000000000000e+03 4.109000000000000000e+03 4.055000000000000000e+03 4.055000000000000000e+03 4.029000000000000000e+03 4.029000000000000000e+03 4.029000000000000000e+03 4.003000000000000000e+03 4.003000000000000000e+03 4.003000000000000000e+03 4.003000000000000000e+03 4.003000000000000000e+03 4.003000000000000000e+03 4.003000000000000000e+03 4.003000000000000000e+03 3.977000000000000000e+03 3.977000000000000000e+03 3.977000000000000000e+03 3.977000000000000000e+03 3.977000000000000000e+03 3.951000000000000000e+03 3.951000000000000000e+03 3.951000000000000000e+03 3.951000000000000000e+03 3.951000000000000000e+03 3.951000000000000000e+03
4.082000000000000000e+03 4.082000000000000000e+03 4.055000000000000000e+03 4.055000000000000000e+03 4.055000000000000000e+03 4.029000000000000000e+03 4.029000000000000000e+03 4.029000000000000000e+03 4.003000000000000000e+03 4.003000000000000000e+03 4.029000000000000000e+03 4.029000000000000000e+03 4.055000000000000000e+03 4.055000000000000000e+03 4.055000000000000000e+03 4.055000000000000000e+03 4.082000000000000000e+03 4.082000000000000000e+03 4.082000000000000000e+03 4.082000000000000000e+03 4.082000000000000000e+03 4.082000000000000000e+03 4.082000000000000000e+03 4.082000000000000000e+03 4.082000000000000000e+03 4.082000000000000000e+03 4.082000000000000000e+03 4.055000000000000000e+03 4.055000000000000000e+03 4.082000000000000000e+03 4.082000000000000000e+03 4.109000000000000000e+03 4.109000000000000000e+03 4.165000000000000000e+03 4.193000000000000000e+03 4.222000000000000000e+03 4.281000000000000000e+03 4.311000000000000000e+03 4.341000000000000000e+03 4.372000000000000000e+03 4.403000000000000000e+03 4.435000000000000000e+03 4.435000000000000000e+03 4.467000000000000000e+03 4.467000000000000000e+03 4.499000000000000000e+03 4.532000000000000000e+03 4.566000000000000000e+03 4.600000000000000000e+03 4.600000000000000000e+03 4.635000000000000000e+03 4.635000000000000000e+03 4.670000000000000000e+03 4.705000000000000000e+03 4.705000000000000000e+03 4.705000000000000000e+03 4.670000000000000000e+03 4.670000000000000000e+03 4.635000000000000000e+03 4.600000000000000000e+03 4.600000000000000000e+03 4.566000000000000000e+03 4.566000000000000000e+03 4.532000000000000000e+03 4.499000000000000000e+03 4.467000000000000000e+03 4.467000000000000000e+03 4.435000000000000000e+03 4.435000000000000000e+03 4.403000000000000000e+03 4.372000000000000000e+03 4.341000000000000000e+03 4.341000000000000000e+03 4.341000000000000000e+03 4.311000000000000000e+03 4.311000000000000000e+03 4.281000000000000000e+03 4.281000000000000000e+03 4.281000000000000000e+03 4.311000000000000000e+03 4.311000000000000000e+03 4.311000000000000000e+03 4.311000000000000000e+03 4.311000000000000000e+03 4.281000000000000000e+03 4.311000000000000000e+03 4.251000000000000000e+03 4.251000000000000000e+03 4.222000000000000000e+03 4.193000000000000000e+03 4.193000000000000000e+03 4.165000000000000000e+03 4.137000000000000000e+03 4.109000000000000000e+03 4.109000000000000000e+03 4.082000000000000000e+03 4.055000000000000000e+03 4.055000000000000000e+03 4.029000000000000000e+03 4.029000000000000000e+03 4.029000000000000000e+03 4.003000000000000000e+03 4.003000000000000000e+03 4.003000000000000000e+03 4.003000000000000000e+03 4.003000000000000000e+03 4.003000000000000000e+03 4.003000000000000000e+03 4.003000000000000000e+03 3.977000000000000000e+03 3.977000000000000000e+03 3.951000000000000000e+03 3.951000000000000000e+03 3.951000000000000000e+03 3.926000000000000000e+03 3.926000000000000000e+03 3.926000000000000000e+03 3.926000000000000000e+03 3.951000000000000000e+03
4.055000000000000000e+03 4.055000000000000000e+03 4.029000000000000000e+03 4.029000000000000000e+03 4.029000000000000000e+03 4.029000000000000000e+03 4.029000000000000000e+03 4.029000000000000000e+03 4.029000000000000000e+03 4.029000000000000000e+03 4.055000000000000000e+03 4.055000000000000000e+03 4.055000000000000000e+03 4.055000000000000000e+03 4.082000000000000000e+03 4.082000000000000000e+03 4.109000000000000000e+03 4.109000000000000000e+03 4.109000000000000000e+03 4.109000000000000000e+03 4.109000000000000000e+03 4.109000000000000000e+03 4.109000000000000000e+03 4.109000000000000000e+03 4.109000000000000000e+03 4.109000000000000000e+03 4.109000000000000000e+03 4.109000000000000000e+03 4.109000000000000000e+03 4.109000000000000000e+03 4.137000000000000000e+03 4.165000000000000000e+03 4.165000000000000000e+03 4.193000000000000000e+03 4.251000000000000000e+03 4.281000000000000000e+03 4.341000000000000000e+03 4.341000000000000000e+03 4.403000000000000000e+03 4.435000000000000000e+03 4.467000000000000000e+03 4.499000000000000000e+03 4.499000000000000000e+03 4.499000000000000000e+03 4.532000000000000000e+03 4.532000000000000000e+03 4.566000000000000000e+03 4.600000000000000000e+03 4.635000000000000000e+03 4.635000000000000000e+03 4.635000000000000000e+03 4.635000000000000000e+03 4.670000000000000000e+03 4.670000000000000000e+03 4.670000000000000000e+03 4.670000000000000000e+03 4.635000000000000000e+03 4.635000000000000000e+03 4.635000000000000000e+03 4.600000000000000000e+03 4.600000000000000000e+03 4.566000000000000000e+03 4.566000000000000000e+03 4.532000000000000000e+03 4.532000000000000000e+03 4.499000000000000000e+03 4.499000000000000000e+03 4.499000000000000000e+03 4.467000000000000000e+03 4.435000000000000000e+03 4.435000000000000000e+03 4.403000000000000000e+03 4.403000000000000000e+03 4.372000000000000000e+03 4.341000000000000000e+03 4.341000000000000000e+03 4.341000000000000000e+03 4.311000000000000000e+03 4.341000000000000000e+03 4.341000000000000000e+03 4.341000000000000000e+03 4.311000000000000000e+03 4.311000000000000000e+03 4.311000000000000000e+03 4.281000000000000000e+03 4.281000000000000000e+03 4.281000000000000000e+03 4.222000000000000000e+03 4.222000000000000000e+03 4.193000000000000000e+03 4.165000000000000000e+03 4.137000000000000000e+03 4.109000000000000000e+03 4.109000000000000000e+03 4.082000000000000000e+03 4.055000000000000000e+03 4.055000000000000000e+03 4.029000000000000000e+03 4.029000000000000000e+03 4.029000000000000000e+03 4.029000000000000000e+03 4.029000000000000000e+03 4.003000000000000000e+03 4.029000000000000000e+03 4.003000000000000000e+03 4.003000000000000000e+03 4.003000000000000000e+03 3.977000000000000000e+03 3.977000000000000000e+03 3.951000000000000000e+03 3.951000000000000000e+03 3.926000000000000000e+03 3.926000000000000000e+03 3.926000000000000000e+03 3.926000000000000000e+03 3.926000000000000000e+03 3.926000000000000000e+03 3.926000000000000000e+03 3.926000000000000000e+03
4.029000000000000000e+03 4.029000000000000000e+03 4.029000000000000000e+03 4.029000000000000000e+03 4.029000000000000000e+03 4.029000000000000000e+03 4.029000000000000000e+03 4.029000000000000000e+03 4.055000000000000000e+03 4.055000000000000000e+03 4.082000000000000000e+03 4.082000000000000000e+03 4.082000000000000000e+03 4.082000000000000000e+03 4.109000000000000000e+03 4.109000000000000000e+03 4.137000000000000000e+03 4.137000000000000000e+03 4.137000000000000000e+03 4.137000000000000000e+03 4.137000000000000000e+03 4.137000000000000000e+03 4.137000000000000000e+03 4.137000000000000000e+03 4.137000000000000000e+03 4.137000000000000000e+03 4.137000000000000000e+03 4.137000000000000000e+03 4.137000000000000000e+03 4.165000000000000000e+03 4.165000000000000000e+03 4.193000000000000000e+03 4.222000000000000000e+03 4.251000000000000000e+03 4.311000000000000000e+03 4.341000000000000000e+03 4.403000000000000000e+03 4.403000000000000000e+03 4.435000000000000000e+03 4.499000000000000000e+03 4.532000000000000000e+03 4.566000000000000000e+03 4.566000000000000000e+03 4.566000000000000000e+03 4.600000000000000000e+03 4.600000000000000000e+03 4.635000000000000000e+03 4.670000000000000000e+03 4.670000000000000000e+03 4.670000000000000000e+03 4.670000000000000000e+03 4.670000000000000000e+03 4.635000000000000000e+03 4.670000000000000000e+03 4.635000000000000000e+03 4.635000000000000000e+03 4.600000000000000000e+03 4.635000000000000000e+03 4.600000000000000000e+03 4.600000000000000000e+03 4.600000000000000000e+03 4.600000000000000000e+03 4.566000000000000000e+03 4.566000000000000000e+03 4.566000000000000000e+03 4.532000000000000000e+03 4.532000000000000000e+03 4.499000000000000000e+03 4.499000000000000000e+03 4.499000000000000000e+03 4.467000000000000000e+03 4.435000000000000000e+03 4.435000000000000000e+03 4.403000000000000000e+03 4.372000000000000000e+03 4.372000000000000000e+03 4.372000000000000000e+03 4.341000000000000000e+03 4.372000000000000000e+03 4.341000000000000000e+03 4.341000000000000000e+03 4.341000000000000000e+03 4.311000000000000000e+03 4.311000000000000000e+03 4.311000000000000000e+03 4.281000000000000000e+03 4.251000000000000000e+03 4.222000000000000000e+03 4.193000000000000000e+03 4.165000000000000000e+03 4.137000000000000000e+03 4.109000000000000000e+03 4.082000000000000000e+03 4.082000000000000000e+03 4.055000000000000000e+03 4.055000000000000000e+03 4.029000000000000000e+03 4.029000000000000000e+03 4.029000000000000000e+03 4.003000000000000000e+03 4.003000000000000000e+03 4.003000000000000000e+03 4.003000000000000000e+03 4.003000000000000000e+03 4.003000000000000000e+03 4.003000000000000000e+03 4.003000000000000000e+03 3.977000000000000000e+03 3.977000000000000000e+03 3.951000000000000000e+03 3.951000000000000000e+03 3.926000000000000000e+03 3.926000000000000000e+03 3.926000000000000000e+03 3.926000000000000000e+03 3.926000000000000000e+03 3.901000000000000000e+03 3.926000000000000000e+03 3.951000000000000000e+03
4.029000000000000000e+03 4.029000000000000000e+03 4.029000000000000000e+03 4.029000000000000000e+03 4.055000000000000000e+03 4.055000000000000000e+03 4.055000000000000000e+03 4.055000000000000000e+03 4.082000000000000000e+03 4.082000000000000000e+03 4.082000000000000000e+03 4.109000000000000000e+03 4.109000000000000000e+03 4.137000000000000000e+03 4.137000000000000000e+03 4.165000000000000000e+03 4.165000000000000000e+03 4.165000000000000000e+03 4.165000000000000000e+03 4.165000000000000000e+03 4.193000000000000000e+03 4.165000000000000000e+03 4.165000000000000000e+03 4.165000000000000000e+03 4.165000000000000000e+03 4.165000000000000000e+03 4.165000000000000000e+03 4.165000000000000000e+03 4.165000000000000000e+03 4.193000000000000000e+03 4.193000000000000000e+03 4.222000000000000000e+03 4.281000000000000000e+03 4.311000000000000000e+03 4.372000000000000000e+03 4.403000000000000000e+03 4.467000000000000000e+03 4.499000000000000000e+03 4.532000000000000000e+03 4.566000000000000000e+03 4.600000000000000000e+03 4.635000000000000000e+03 4.635000000000000000e+03 4.670000000000000000e+03 4.670000000000000000e+03 4.705000000000000000e+03 4.705000000000000000e+03 4.705000000000000000e+03 4.705000000000000000e+03 4.705000000000000000e+03 4.705000000000000000e+03 4.670000000000000000e+03 4.670000000000000000e+03 4.635000000000000000e+03 4.600000000000000000e+03 4.600000000000000000e+03 4.600000000000000000e+03 4.600000000000000000e+03 4.600000000000000000e+03 4.600000000000000000e+03 4.600000000000000000e+03 4.600000000000000000e+03 4.600000000000000000e+03 4.566000000000000000e+03 4.566000000000000000e+03 4.566000000000000000e+03 4.532000000000000000e+03 4.532000000000000000e+03 4.499000000000000000e+03 4.499000000000000000e+03 4.499000000000000000e+03 4.467000000000000000e+03 4.435000000000000000e+03 4.435000000000000000e+03 4.403000000000000000e+03 4.372000000000000000e+03 4.372000000000000000e+03 4.372000000000000000e+03 4.341000000000000000e+03 4.341000000000000000e+03 4.311000000000000000e+03 4.311000000000000000e+03 4.281000000000000000e+03 4.281000000000000000e+03 4.281000000000000000e+03 4.251000000000000000e+03 4.222000000000000000e+03 4.193000000000000000e+03 4.165000000000000000e+03 4.137000000000000000e+03 4.109000000000000000e+03 4.109000000000000000e+03 4.082000000000000000e+03 4.055000000000000000e+03 4.029000000000000000e+03 4.029000000000000000e+03 4.003000000000000000e+03 4.003000000000000000e+03 4.003000000000000000e+03 4.003000000000000000e+03 4.003000000000000000e+03 4.003000000000000000e+03 4.003000000000000000e+03 4.003000000000000000e+03 4.003000000000000000e+03 4.003000000000000000e+03 4.003000000000000000e+03 4.003000000000000000e+03 3.977000000000000000e+03 3.951000000000000000e+03 3.951000000000000000e+03 3.926000000000000000e+03 3.926000000000000000e+03 3.926000000000000000e+03 3.901000000000000000e+03 3.901000000000000000e+03 3.901000000000000000e+03 3.926000000000000000e+03 3.951000000000000000e+03
4.055000000000000000e+03 4.055000000000000000e+03 4.055000000000000000e+03 4.055000000000000000e+03 4.055000000000000000e+03 4.082000000000000000e+03 4.082000000000000000e+03 4.082000000000000000e+03 4.109000000000000000e+03 4.109000000000000000e+03 4.109000000000000000e+03 4.137000000000000000e+03 4.137000000000000000e+03 4.165000000000000000e+03 4.165000000000000000e+03 4.193000000000000000e+03 4.193000000000000000e+03 4.193000000000000000e+03 4.193000000000000000e+03 4.193000000000000000e+03 4.193000000000000000e+03 4.193000000000000000e+03 4.193000000000000000e+03 4.193000000000000000e+03 4.193000000000000000e+03 4.193000000000000000e+03 4.193000000000000000e+03 4.193000000000000000e+03 4.222000000000000000e+03 4.251000000000000000e+03 4.281000000000000000e+03 4.281000000000000000e+03 4.341000000000000000e+03 4.403000000000000000e+03 4.435000000000000000e+03 4.467000000000000000e+03 4.532000000000000000e+03 4.566000000000000000e+03 4.600000000000000000e+03 4.635000000000000000e+03 4.670000000000000000e+03 4.705000000000000000e+03 4.742000000000000000e+03 4.742000000000000000e+03 4.742000000000000000e+03 4.778000000000000000e+03 4.778000000000000000e+03 4.778000000000000000e+03 4.778000000000000000e+03 4.778000000000000000e+03 4.742000000000000000e+03 4.705000000000000000e+03 4.670000000000000000e+03 4.635000000000000000e+03 4.600000000000000000e+03 4.600000000000000000e+03 4.566000000000000000e+03 4.566000000000000000e+03 4.566000000000000000e+03 4.600000000000000000e+03 4.600000000000000000e+03 4.600000000000000000e+03 4.566000000000000000e+03 4.600000000000000000e+03 4.600000000000000000e+03 4.566000000000000000e+03 4.566000000000000000e+03 4.532000000000000000e+03 4.532000000000000000e+03 4.499000000000000000e+03 4.499000000000000000e+03 4.467000000000000000e+03 4.467000000000000000e+03 4.435000000000000000e+03 4.403000000000000000e+03 4.403000000000000000e+03 4.372000000000000000e+03 4.341000000000000000e+03 4.341000000000000000e+03 4.341000000000000000e+03 4.311000000000000000e+03 4.281000000000000000e+03 4.281000000000000000e+03 4.251000000000000000e+03 4.251000000000000000e+03 4.222000000000000000e+03 4.222000000000000000e+03 4.165000000000000000e+03 4.137000000000000000e+03 4.137000000000000000e+03 4.109000000000000000e+03 4.082000000000000000e+03 4.055000000000000000e+03 4.029000000000000000e+03 4.029000000000000000e+03 4.003000000000000000e+03 4.003000000000000000e+03 4.003000000000000000e+03 4.003000000000000000e+03 4.003000000000000000e+03 4.003000000000000000e+03 4.003000000000000000e+03 4.003000000000000000e+03 4.003000000000000000e+03 3.977000000000000000e+03 3.977000000000000000e+03 3.977000000000000000e+03 3.977000000000000000e+03 3.977000000000000000e+03 3.951000000000000000e+03 3.926000000000000000e+03 3.926000000000000000e+03 3.901000000000000000e+03 3.901000000000000000e+03 3.901000000000000000e+03 3.926000000000000000e+03 3.901000000000000000e+03 3.926000000000000000e+03 3.951000000000000000e+03
4.082000000000000000e+03 4.082000000000000000e+03 4.082000000000000000e+03 4.082000000000000000e+03 4.082000000000000000e+03 4.109000000000000000e+03 4.109000000000000000e+03 4.109000000000000000e+03 4.137000000000000000e+03 4.137000000000000000e+03 4.137000000000000000e+03 4.165000000000000000e+03 4.165000000000000000e+03 4.193000000000000000e+03 4.193000000000000000e+03 4.193000000000000000e+03 4.193000000000000000e+03 4.222000000000000000e+03 4.222000000000000000e+03 4.193000000000000000e+03 4.222000000000000000e+03 4.222000000000000000e+03 4.222000000000000000e+03 4.193000000000000000e+03 4.222000000000000000e+03 4.222000000000000000e+03 4.222000000000000000e+03 4.251000000000000000e+03 4.281000000000000000e+03 4.311000000000000000e+03 4.341000000000000000e+03 4.341000000000000000e+03 4.403000000000000000e+03 4.467000000000000000e+03 4.499000000000000000e+03 4.566000000000000000e+03 4.600000000000000000e+03 4.600000000000000000e+03 4.670000000000000000e+03 4.705000000000000000e+03 4.742000000000000000e+03 4.742000000000000000e+03 4.778000000000000000e+03 4.816000000000000000e+03 4.816000000000000000e+03 4.816000000000000000e+03 4.854000000000000000e+03 4.854000000000000000e+03 4.854000000000000000e+03 4.816000000000000000e+03 4.816000000000000000e+03 4.742000000000000000e+03 4.705000000000000000e+03 4.670000000000000000e+03 4.635000000000000000e+03 4.600000000000000000e+03 4.566000000000000000e+03 4.566000000000000000e+03 4.600000000000000000e+03 4.600000000000000000e+03 4.600000000000000000e+03 4.600000000000000000e+03 4.600000000000000000e+03 4.600000000000000000e+03 4.600000000000000000e+03 4.566000000000000000e+03 4.566000000000000000e+03 4.566000000000000000e+03 4.532000000000000000e+03 4.532000000000000000e+03 4.499000000000000000e+03 4.467000000000000000e+03 4.467000000000000000e+03 4.435000000000000000e+03 4.403000000000000000e+03 4.372000000000000000e+03 4.372000000000000000e+03 4.341000000000000000e+03 4.341000000000000000e+03 4.311000000000000000e+03 4.311000000000000000e+03 4.281000000000000000e+03 4.281000000000000000e+03 4.251000000000000000e+03 4.222000000000000000e+03 4.222000000000000000e+03 4.193000000000000000e+03 4.165000000000000000e+03 4.137000000000000000e+03 4.109000000000000000e+03 4.082000000000000000e+03 4.082000000000000000e+03 4.055000000000000000e+03 4.029000000000000000e+03 4.003000000000000000e+03 4.003000000000000000e+03 4.003000000000000000e+03 4.003000000000000000e+03 3.977000000000000000e+03 4.003000000000000000e+03 3.977000000000000000e+03 3.977000000000000000e+03 3.977000000000000000e+03 4.003000000000000000e+03 3.977000000000000000e+03 3.977000000000000000e+03 3.977000000000000000e+03 3.977000000000000000e+03 3.951000000000000000e+03 3.951000000000000000e+03 3.926000000000000000e+03 3.926000000000000000e+03 3.926000000000000000e+03 3.901000000000000000e+03 3.901000000000000000e+03 3.901000000000000000e+03 3.926000000000000000e+03 3.951000000000000000e+03 3.977000000000000000e+03
4.082000000000000000e+03 4.082000000000000000e+03 4.082000000000000000e+03 4.082000000000000000e+03 4.109000000000000000e+03 4.109000000000000000e+03 4.137000000000000000e+03 4.137000000000000000e+03 4.137000000000000000e+03 4.165000000000000000e+03 4.165000000000000000e+03 4.165000000000000000e+03 4.193000000000000000e+03 4.193000000000000000e+03 4.193000000000000000e+03 4.193000000000000000e+03 4.222000000000000000e+03 4.222000000000000000e+03 4.222000000000000000e+03 4.222000000000000000e+03 4.222000000000000000e+03 4.222000000000000000e+03 4.222000000000000000e+03 4.222000000000000000e+03 4.251000000000000000e+03 4.251000000000000000e+03 4.281000000000000000e+03 4.311000000000000000e+03 4.311000000000000000e+03 4.341000000000000000e+03 4.403000000000000000e+03 4.403000000000000000e+03 4.467000000000000000e+03 4.499000000000000000e+03 4.566000000000000000e+03 4.600000000000000000e+03 4.670000000000000000e+03 4.670000000000000000e+03 4.705000000000000000e+03 4.778000000000000000e+03 4.778000000000000000e+03 4.778000000000000000e+03 4.816000000000000000e+03 4.816000000000000000e+03 4.854000000000000000e+03 4.854000000000000000e+03 4.892000000000000000e+03 4.892000000000000000e+03 4.854000000000000000e+03 4.854000000000000000e+03 4.816000000000000000e+03 4.778000000000000000e+03 4.742000000000000000e+03 4.705000000000000000e+03 4.635000000000000000e+03 4.600000000000000000e+03 4.600000000000000000e+03 4.600000000000000000e+03 4.600000000000000000e+03 4.600000000000000000e+03 4.635000000000000000e+03 4.600000000000000000e+03 4.600000000000000000e+03 4.600000000000000000e+03 4.600000000000000000e+03 4.600000000000000000e+03 4.566000000000000000e+03 4.566000000000000000e+03 4.532000000000000000e+03 4.499000000000000000e+03 4.499000000000000000e+03 4.467000000000000000e+03 4.435000000000000000e+03 4.403000000000000000e+03 4.403000000000000000e+03 4.372000000000000000e+03 4.372000000000000000e+03 4.341000000000000000e+03 4.341000000000000000e+03 4.311000000000000000e+03 4.281000000000000000e+03 4.281000000000000000e+03 4.251000000000000000e+03 4.222000000000000000e+03 4.222000000000000000e+03 4.193000000000000000e+03 4.165000000000000000e+03 4.165000000000000000e+03 4.137000000000000000e+03 4.109000000000000000e+03 4.082000000000000000e+03 4.055000000000000000e+03 4.029000000000000000e+03 4.029000000000000000e+03 4.003000000000000000e+03 4.003000000000000000e+03 4.003000000000000000e+03 4.003000000000000000e+03 4.003000000000000000e+03 4.003000000000000000e+03 4.003000000000000000e+03 4.003000000000000000e+03 4.003000000000000000e+03 4.003000000000000000e+03 4.003000000000000000e+03 4.003000000000000000e+03 3.977000000000000000e+03 3.977000000000000000e+03 3.977000000000000000e+03 3.951000000000000000e+03 3.926000000000000000e+03 3.926000000000000000e+03 3.926000000000000000e+03 3.926000000000000000e+03 3.926000000000000000e+03 3.926000000000000000e+03 3.951000000000000000e+03 3.977000000000000000e+03 4.003000000000000000e+03
4.109000000000000000e+03 4.109000000000000000e+03 4.109000000000000000e+03 4.109000000000000000e+03 4.137000000000000000e+03 4.137000000000000000e+03 4.137000000000000000e+03 4.165000000000000000e+03 4.165000000000000000e+03 4.165000000000000000e+03 4.193000000000000000e+03 4.193000000000000000e+03 4.193000000000000000e+03 4.193000000000000000e+03 4.193000000000000000e+03 4.193000000000000000e+03 4.193000000000000000e+03 4.193000000000000000e+03 4.193000000000000000e+03 4.193000000000000000e+03 4.222000000000000000e+03 4.222000000000000000e+03 4.222000000000000000e+03 4.251000000000000000e+03 4.281000000000000000e+03 4.281000000000000000e+03 4.281000000000000000e+03 4.341000000000000000e+03 4.341000000000000000e+03 4.372000000000000000e+03 4.435000000000000000e+03 4.467000000000000000e+03 4.532000000000000000e+03 4.532000000000000000e+03 4.600000000000000000e+03 4.635000000000000000e+03 4.670000000000000000e+03 4.705000000000000000e+03 4.742000000000000000e+03 4.778000000000000000e+03 4.778000000000000000e+03 4.816000000000000000e+03 4.816000000000000000e+03 4.854000000000000000e+03 4.892000000000000000e+03 4.892000000000000000e+03 4.892000000000000000e+03 4.931000000000000000e+03 4.892000000000000000e+03 4.854000000000000000e+03 4.816000000000000000e+03 4.816000000000000000e+03 4.742000000000000000e+03 4.705000000000000000e+03 4.635000000000000000e+03 4.635000000000000000e+03 4.600000000000000000e+03 4.600000000000000000e+03 4.635000000000000000e+03 4.635000000000000000e+03 4.635000000000000000e+03 4.600000000000000000e+03 4.635000000000000000e+03 4.635000000000000000e+03 4.635000000000000000e+03 4.600000000000000000e+03 4.600000000000000000e+03 4.566000000000000000e+03 4.566000000000000000e+03 4.532000000000000000e+03 4.499000000000000000e+03 4.467000000000000000e+03 4.435000000000000000e+03 4.435000000000000000e+03 4.403000000000000000e+03 4.372000000000000000e+03 4.341000000000000000e+03 4.341000000000000000e+03 4.311000000000000000e+03 4.281000000000000000e+03 4.281000000000000000e+03 4.251000000000000000e+03 4.251000000000000000e+03 4.222000000000000000e+03 4.222000000000000000e+03 4.193000000000000000e+03 4.165000000000000000e+03 4.165000000000000000e+03 4.137000000000000000e+03 4.109000000000000000e+03 4.082000000000000000e+03 4.055000000000000000e+03 4.029000000000000000e+03 4.029000000000000000e+03 4.029000000000000000e+03 4.029000000000000000e+03 4.003000000000000000e+03 4.029000000000000000e+03 4.003000000000000000e+03 4.003000000000000000e+03 4.003000000000000000e+03 4.003000000000000000e+03 3.977000000000000000e+03 4.003000000000000000e+03 4.003000000000000000e+03 4.003000000000000000e+03 4.003000000000000000e+03 4.003000000000000000e+03 3.977000000000000000e+03 3.951000000000000000e+03 3.951000000000000000e+03 3.951000000000000000e+03 3.926000000000000000e+03 3.926000000000000000e+03 3.977000000000000000e+03 3.951000000000000000e+03 3.977000000000000000e+03 4.029000000000000000e+03 4.029000000000000000e+03
4.109000000000000000e+03 4.137000000000000000e+03 4.137000000000000000e+03 4.137000000000000000e+03 4.137000000000000000e+03 4.137000000000000000e+03 4.165000000000000000e+03 4.165000000000000000e+03 4.165000000000000000e+03 4.165000000000000000e+03 4.165000000000000000e+03 4.165000000000000000e+03 4.165000000000000000e+03 4.165000000000000000e+03 4.193000000000000000e+03 4.193000000000000000e+03 4.193000000000000000e+03 4.193000000000000000e+03 4.193000000000000000e+03 4.193000000000000000e+03 4.193000000000000000e+03 4.222000000000000000e+03 4.251000000000000000e+03 4.251000000000000000e+03 4.281000000000000000e+03 4.311000000000000000e+03 4.311000000000000000e+03 4.372000000000000000e+03 4.372000000000000000e+03 4.435000000000000000e+03 4.467000000000000000e+03 4.499000000000000000e+03 4.532000000000000000e+03 4.566000000000000000e+03 4.600000000000000000e+03 4.670000000000000000e+03 4.705000000000000000e+03 4.742000000000000000e+03 4.742000000000000000e+03 4.778000000000000000e+03 4.778000000000000000e+03 4.816000000000000000e+03 4.854000000000000000e+03 4.854000000000000000e+03 4.892000000000000000e+03 4.892000000000000000e+03 4.931000000000000000e+03 4.931000000000000000e+03 4.931000000000000000e+03 4.892000000000000000e+03 4.816000000000000000e+03 4.778000000000000000e+03 4.742000000000000000e+03 4.705000000000000000e+03 4.670000000000000000e+03 4.635000000000000000e+03 4.635000000000000000e+03 4.635000000000000000e+03 4.635000000000000000e+03 4.635000000000000000e+03 4.635000000000000000e+03 4.635000000000000000e+03 4.635000000000000000e+03 4.635000000000000000e+03 4.635000000000000000e+03 4.635000000000000000e+03 4.600000000000000000e+03 4.566000000000000000e+03 4.566000000000000000e+03 4.532000000000000000e+03 4.499000000000000000e+03 4.467000000000000000e+03 4.435000000000000000e+03 4.403000000000000000e+03 4.403000000000000000e+03 4.372000000000000000e+03 4.341000000000000000e+03 4.341000000000000000e+03 4.311000000000000000e+03 4.311000000000000000e+03 4.281000000000000000e+03 4.251000000000000000e+03 4.251000000000000000e+03 4.251000000000000000e+03 4.222000000000000000e+03 4.193000000000000000e+03 4.193000000000000000e+03 4.165000000000000000e+03 4.137000000000000000e+03 4.109000000000000000e+03 4.082000000000000000e+03 4.055000000000000000e+03 4.055000000000000000e+03 4.055000000000000000e+03 4.029000000000000000e+03 4.029000000000000000e+03 4.003000000000000000e+03 4.003000000000000000e+03 4.029000000000000000e+03 4.029000000000000000e+03 4.029000000000000000e+03 4.029000000000000000e+03 4.003000000000000000e+03 4.003000000000000000e+03 4.003000000000000000e+03 4.003000000000000000e+03 3.977000000000000000e+03 3.977000000000000000e+03 3.977000000000000000e+03 3.951000000000000000e+03 3.977000000000000000e+03 3.977000000000000000e+03 3.977000000000000000e+03 3.977000000000000000e+03 4.003000000000000000e+03 4.029000000000000000e+03 4.029000000000000000e+03 4.082000000000000000e+03 4.082000000000000000e+03
4.137000000000000000e+03 4.137000000000000000e+03 4.137000000000000000e+03 4.137000000000000000e+03 4.165000000000000000e+03 4.165000000000000000e+03 4.165000000000000000e+03 4.165000000000000000e+03 4.165000000000000000e+03 4.165000000000000000e+03 4.165000000000000000e+03 4.165000000000000000e+03 4.165000000000000000e+03 4.165000000000000000e+03 4.165000000000000000e+03 4.165000000000000000e+03 4.165000000000000000e+03 4.165000000000000000e+03 4.165000000000000000e+03 4.165000000000000000e+03 4.193000000000000000e+03 4.193000000000000000e+03 4.251000000000000000e+03 4.251000000000000000e+03 4.311000000000000000e+03 4.311000000000000000e+03 4.341000000000000000e+03 4.372000000000000000e+03 4.403000000000000000e+03 4.435000000000000000e+03 4.499000000000000000e+03 4.499000000000000000e+03 4.566000000000000000e+03 4.566000000000000000e+03 4.635000000000000000e+03 4.670000000000000000e+03 4.742000000000000000e+03 4.742000000000000000e+03 4.742000000000000000e+03 4.778000000000000000e+03 4.816000000000000000e+03 4.816000000000000000e+03 4.816000000000000000e+03 4.854000000000000000e+03 4.892000000000000000e+03 4.892000000000000000e+03 4.892000000000000000e+03 4.931000000000000000e+03 4.892000000000000000e+03 4.854000000000000000e+03 4.854000000000000000e+03 4.816000000000000000e+03 4.742000000000000000e+03 4.705000000000000000e+03 4.670000000000000000e+03 4.670000000000000000e+03 4.635000000000000000e+03 4.635000000000000000e+03 4.635000000000000000e+03 4.635000000000000000e+03 4.635000000000000000e+03 4.635000000000000000e+03 4.670000000000000000e+03 4.670000000000000000e+03 4.635000000000000000e+03 4.635000000000000000e+03 4.600000000000000000e+03 4.600000000000000000e+03 4.566000000000000000e+03 4.532000000000000000e+03 4.499000000000000000e+03 4.467000000000000000e+03 4.435000000000000000e+03 4.403000000000000000e+03 4.403000000000000000e+03 4.372000000000000000e+03 4.341000000000000000e+03 4.341000000000000000e+03 4.311000000000000000e+03 4.311000000000000000e+03 4.281000000000000000e+03 4.281000000000000000e+03 4.251000000000000000e+03 4.251000000000000000e+03 4.222000000000000000e+03 4.222000000000000000e+03 4.193000000000000000e+03 4.165000000000000000e+03 4.137000000000000000e+03 4.137000000000000000e+03 4.109000000000000000e+03 4.082000000000000000e+03 4.055000000000000000e+03 4.055000000000000000e+03 4.029000000000000000e+03 4.029000000000000000e+03 4.029000000000000000e+03 4.029000000000000000e+03 4.029000000000000000e+03 4.029000000000000000e+03 4.029000000000000000e+03 4.029000000000000000e+03 4.029000000000000000e+03 4.029000000000000000e+03 4.029000000000000000e+03 4.029000000000000000e+03 4.003000000000000000e+03 4.003000000000000000e+03 4.003000000000000000e+03 3.977000000000000000e+03 3.977000000000000000e+03 4.029000000000000000e+03 4.029000000000000000e+03 4.055000000000000000e+03 4.055000000000000000e+03 4.055000000000000000e+03 4.082000000000000000e+03 4.082000000000000000e+03 4.109000000000000000e+03
4.165000000000000000e+03 4.165000000000000000e+03 4.165000000000000000e+03 4.165000000000000000e+03 4.165000000000000000e+03 4.165000000000000000e+03 4.165000000000000000e+03 4.165000000000000000e+03 4.165000000000000000e+03 4.165000000000000000e+03 4.165000000000000000e+03 4.165000000000000000e+03 4.165000000000000000e+03 4.137000000000000000e+03 4.137000000000000000e+03 4.137000000000000000e+03 4.137000000000000000e+03 4.137000000000000000e+03 4.165000000000000000e+03 4.165000000000000000e+03 4.193000000000000000e+03 4.222000000000000000e+03 4.251000000000000000e+03 4.281000000000000000e+03 4.311000000000000000e+03 4.372000000000000000e+03 4.372000000000000000e+03 4.403000000000000000e+03 4.403000000000000000e+03 4.467000000000000000e+03 4.499000000000000000e+03 4.532000000000000000e+03 4.566000000000000000e+03 4.600000000000000000e+03 4.635000000000000000e+03 4.670000000000000000e+03 4.705000000000000000e+03 4.742000000000000000e+03 4.778000000000000000e+03 4.778000000000000000e+03 4.816000000000000000e+03 4.816000000000000000e+03 4.854000000000000000e+03 4.854000000000000000e+03 4.854000000000000000e+03 4.892000000000000000e+03 4.931000000000000000e+03 4.931000000000000000e+03 4.892000000000000000e+03 4.854000000000000000e+03 4.816000000000000000e+03 4.816000000000000000e+03 4.742000000000000000e+03 4.705000000000000000e+03 4.670000000000000000e+03 4.670000000000000000e+03 4.635000000000000000e+03 4.635000000000000000e+03 4.635000000000000000e+03 4.635000000000000000e+03 4.635000000000000000e+03 4.670000000000000000e+03 4.670000000000000000e+03 4.670000000000000000e+03 4.670000000000000000e+03 4.635000000000000000e+03 4.635000000000000000e+03 4.600000000000000000e+03 4.566000000000000000e+03 4.532000000000000000e+03 4.532000000000000000e+03 4.499000000000000000e+03 4.467000000000000000e+03 4.435000000000000000e+03 4.435000000000000000e+03 4.403000000000000000e+03 4.372000000000000000e+03 4.341000000000000000e+03 4.341000000000000000e+03 4.311000000000000000e+03 4.311000000000000000e+03 4.281000000000000000e+03 4.281000000000000000e+03 4.251000000000000000e+03 4.251000000000000000e+03 4.222000000000000000e+03 4.193000000000000000e+03 4.165000000000000000e+03 4.137000000000000000e+03 4.109000000000000000e+03 4.082000000000000000e+03 4.082000000000000000e+03 4.082000000000000000e+03 4.055000000000000000e+03 4.055000000000000000e+03 4.055000000000000000e+03 4.029000000000000000e+03 4.055000000000000000e+03 4.029000000000000000e+03 4.029000000000000000e+03 4.029000000000000000e+03 4.055000000000000000e+03 4.055000000000000000e+03 4.055000000000000000e+03 4.055000000000000000e+03 4.055000000000000000e+03 4.029000000000000000e+03 4.055000000000000000e+03 4.055000000000000000e+03 4.055000000000000000e+03 4.055000000000000000e+03 4.055000000000000000e+03 4.109000000000000000e+03 4.109000000000000000e+03 4.109000000000000000e+03 4.082000000000000000e+03 4.109000000000000000e+03 4.109000000000000000e+03 4.082000000000000000e+03
4.165000000000000000e+03 4.165000000000000000e+03 4.165000000000000000e+03 4.193000000000000000e+03 4.193000000000000000e+03 4.193000000000000000e+03 4.193000000000000000e+03 4.165000000000000000e+03 4.165000000000000000e+03 4.165000000000000000e+03 4.165000000000000000e+03 4.137000000000000000e+03 4.137000000000000000e+03 4.137000000000000000e+03 4.137000000000000000e+03 4.137000000000000000e+03 4.137000000000000000e+03 4.137000000000000000e+03 4.165000000000000000e+03 4.193000000000000000e+03 4.193000000000000000e+03 4.251000000000000000e+03 4.281000000000000000e+03 4.311000000000000000e+03 4.372000000000000000e+03 4.403000000000000000e+03 4.403000000000000000e+03 4.435000000000000000e+03 4.435000000000000000e+03 4.499000000000000000e+03 4.532000000000000000e+03 4.566000000000000000e+03 4.600000000000000000e+03 4.635000000000000000e+03 4.635000000000000000e+03 4.705000000000000000e+03 4.742000000000000000e+03 4.778000000000000000e+03 4.778000000000000000e+03 4.816000000000000000e+03 4.816000000000000000e+03 4.816000000000000000e+03 4.816000000000000000e+03 4.854000000000000000e+03 4.816000000000000000e+03 4.892000000000000000e+03 4.892000000000000000e+03 4.931000000000000000e+03 4.892000000000000000e+03 4.854000000000000000e+03 4.816000000000000000e+03 4.778000000000000000e+03 4.742000000000000000e+03 4.705000000000000000e+03 4.705000000000000000e+03 4.705000000000000000e+03 4.670000000000000000e+03 4.635000000000000000e+03 4.635000000000000000e+03 4.635000000000000000e+03 4.670000000000000000e+03 4.705000000000000000e+03 4.705000000000000000e+03 4.705000000000000000e+03 4.670000000000000000e+03 4.670000000000000000e+03 4.635000000000000000e+03 4.635000000000000000e+03 4.600000000000000000e+03 4.566000000000000000e+03 4.532000000000000000e+03 4.499000000000000000e+03 4.499000000000000000e+03 4.467000000000000000e+03 4.435000000000000000e+03 4.403000000000000000e+03 4.372000000000000000e+03 4.372000000000000000e+03 4.341000000000000000e+03 4.311000000000000000e+03 4.311000000000000000e+03 4.281000000000000000e+03 4.281000000000000000e+03 4.251000000000000000e+03 4.251000000000000000e+03 4.222000000000000000e+03 4.193000000000000000e+03 4.193000000000000000e+03 4.137000000000000000e+03 4.109000000000000000e+03 4.109000000000000000e+03 4.082000000000000000e+03 4.082000000000000000e+03 4.082000000000000000e+03 4.082000000000000000e+03 4.055000000000000000e+03 4.055000000000000000e+03 4.055000000000000000e+03 4.055000000000000000e+03 4.055000000000000000e+03 4.055000000000000000e+03 4.055000000000000000e+03 4.055000000000000000e+03 4.055000000000000000e+03 4.082000000000000000e+03 4.082000000000000000e+03 4.082000000000000000e+03 4.082000000000000000e+03 4.055000000000000000e+03 4.055000000000000000e+03 4.082000000000000000e+03 4.082000000000000000e+03 4.082000000000000000e+03 4.082000000000000000e+03 4.082000000000000000e+03 4.109000000000000000e+03 4.109000000000000000e+03 4.082000000000000000e+03 4.082000000000000000e+03
4.165000000000000000e+03 4.193000000000000000e+03 4.193000000000000000e+03 4.193000000000000000e+03 4.193000000000000000e+03 4.193000000000000000e+03 4.193000000000000000e+03 4.165000000000000000e+03 4.165000000000000000e+03 4.165000000000000000e+03 4.165000000000000000e+03 4.137000000000000000e+03 4.137000000000000000e+03 4.137000000000000000e+03 4.137000000000000000e+03 4.137000000000000000e+03 4.137000000000000000e+03 4.137000000000000000e+03 4.193000000000000000e+03 4.193000000000000000e+03 4.251000000000000000e+03 4.281000000000000000e+03 4.311000000000000000e+03 4.372000000000000000e+03 4.403000000000000000e+03 4.435000000000000000e+03 4.467000000000000000e+03 4.467000000000000000e+03 4.499000000000000000e+03 4.499000000000000000e+03 4.532000000000000000e+03 4.566000000000000000e+03 4.600000000000000000e+03 4.635000000000000000e+03 4.635000000000000000e+03 4.705000000000000000e+03 4.742000000000000000e+03 4.778000000000000000e+03 4.778000000000000000e+03 4.816000000000000000e+03 4.816000000000000000e+03 4.816000000000000000e+03 4.778000000000000000e+03 4.816000000000000000e+03 4.854000000000000000e+03 4.854000000000000000e+03 4.854000000000000000e+03 4.892000000000000000e+03 4.892000000000000000e+03 4.854000000000000000e+03 4.816000000000000000e+03 4.816000000000000000e+03 4.778000000000000000e+03 4.742000000000000000e+03 4.705000000000000000e+03 4.705000000000000000e+03 4.705000000000000000e+03 4.670000000000000000e+03 4.705000000000000000e+03 4.705000000000000000e+03 4.705000000000000000e+03 4.705000000000000000e+03 4.705000000000000000e+03 4.705000000000000000e+03 4.705000000000000000e+03 4.705000000000000000e+03 4.670000000000000000e+03 4.670000000000000000e+03 4.635000000000000000e+03 4.600000000000000000e+03 4.566000000000000000e+03 4.532000000000000000e+03 4.499000000000000000e+03 4.467000000000000000e+03 4.467000000000000000e+03 4.435000000000000000e+03 4.403000000000000000e+03 4.372000000000000000e+03 4.341000000000000000e+03 4.341000000000000000e+03 4.341000000000000000e+03 4.311000000000000000e+03 4.281000000000000000e+03 4.251000000000000000e+03 4.251000000000000000e+03 4.222000000000000000e+03 4.193000000000000000e+03 4.165000000000000000e+03 4.165000000000000000e+03 4.137000000000000000e+03 4.137000000000000000e+03 4.109000000000000000e+03 4.109000000000000000e+03 4.082000000000000000e+03 4.082000000000000000e+03 4.082000000000000000e+03 4.082000000000000000e+03 4.082000000000000000e+03 4.082000000000000000e+03 4.082000000000000000e+03 4.082000000000000000e+03 4.082000000000000000e+03 4.082000000000000000e+03 4.082000000000000000e+03 4.082000000000000000e+03 4.082000000000000000e+03 4.082000000000000000e+03 4.082000000000000000e+03 4.082000000000000000e+03 4.082000000000000000e+03 4.082000000000000000e+03 4.082000000000000000e+03 4.082000000000000000e+03 4.082000000000000000e+03 4.109000000000000000e+03 4.082000000000000000e+03 4.082000000000000000e+03 4.082000000000000000e+03 4.082000000000000000e+03
